# .PCD v0.7 - Point Cloud Data file format
VERSION 0.7
FIELDS x y z
SIZE 4 4 4
TYPE F F F
COUNT 1 1 1
WIDTH 1286
HEIGHT 1
VIEWPOINT 0 0 0 1 0 0 0
POINTS 1286
DATA ascii
0.61612993 -0.3013179 0.026621843
0.61506867 -0.3001233 0.020768031
0.61463118 -0.29879847 0.016855313
0.61511767 -0.29730099 0.015854442
0.61469179 -0.29595342 0.011941282
0.61488074 -0.29449308 0.0099693807
0.61477029 -0.29307336 0.0070265159
0.61496729 -0.29159725 0.0050543682
0.61486673 -0.2901583 0.0021111292
0.615372 -0.28862408 0.0011096052
0.61617839 -0.28704575 0.0010789775
0.6166864 -0.28550628 7.7351557e-05
0.61719614 -0.28396332 -0.00092434254
0.61800438 -0.28238147 -0.00095503818
0.61881256 -0.28079963 -0.00098573382
0.6196208 -0.27921778 -0.0010164295
0.61954701 -0.27772632 -0.0039606867
0.62035793 -0.27613926 -0.0039914842
0.62116879 -0.27455214 -0.0040222816
0.62168843 -0.27298993 -0.0050243493
0.62220979 -0.27142423 -0.0060264845
0.6230225 -0.26983362 -0.00605735
0.62354654 -0.26826268 -0.0070596449
0.62407237 -0.2666882 -0.0080619501
0.62488681 -0.26509413 -0.008092883
0.62570131 -0.26350003 -0.0081238169
0.62651581 -0.26190594 -0.0081547499
0.62733024 -0.26031184 -0.0081856828
0.62814474 -0.25871775 -0.0082166167
0.62895924 -0.25712368 -0.0082475496
0.62977368 -0.25552958 -0.0082784835
0.63058817 -0.25393549 -0.0083094165
0.63140261 -0.25234139 -0.0083403494
0.63221711 -0.25074729 -0.0083712833
0.63303161 -0.24915321 -0.0084022162
0.63384604 -0.24755913 -0.0084331492
0.63466054 -0.24596503 -0.0084640831
0.63547504 -0.24437094 -0.008495016
0.63628948 -0.24277684 -0.0085259499
0.63710397 -0.24118276 -0.0085568829
0.63791841 -0.23958868 -0.0085878158
0.63873291 -0.23799458 -0.0086187497
0.63981813 -0.23641585 -0.0076776319
0.64090157 -0.23484063 -0.0067363889
0.64225221 -0.23328778 -0.0048230165
0.64252698 -0.23165944 -0.0067981197
0.64387399 -0.2301136 -0.0048846118
0.64548373 -0.22859885 -0.0019986895
0.64629191 -0.227017 -0.0020293852
0.64736462 -0.22546278 -0.0010877921
0.64843553 -0.22391205 -0.00014613132
0.65003008 -0.22242706 0.0027403682
0.6518811 -0.22098543 0.0065994607
0.65372491 -0.21955781 0.010458826
0.65504152 -0.21807143 0.012373488
0.65661371 -0.21663019 0.015260837
0.65972996 -0.21543862 0.023983603
0.66257274 -0.21423694 0.031734362
0.66411901 -0.21284644 0.034622695
0.6656599 -0.21146643 0.037511233
0.66694075 -0.21005006 0.039427254
0.66415787 -0.20786287 0.025780102
0.61792094 -0.30750072 0.037161741
0.6177665 -0.30617994 0.034219917
0.61823416 -0.30472359 0.033219535
0.61839616 -0.30332452 0.03124826
0.61794859 -0.30203646 0.027334951
0.6165911 -0.30090621 0.020508453
0.61616051 -0.29958493 0.016594557
0.61634487 -0.29814211 0.014622373
0.6159268 -0.29679632 0.010707944
0.61642218 -0.29528573 0.009706567
0.61631691 -0.29386869 0.006762818
0.61681765 -0.29234761 0.0057612378
0.61732024 -0.29082304 0.0047595887
0.61692899 -0.28942475 0.00084414158
0.61773539 -0.28784642 0.00081351394
0.61794835 -0.2863476 -0.0011596991
0.61875659 -0.28476575 -0.0011903947
0.61956477 -0.2831839 -0.0012210903
0.62037301 -0.28160205 -0.001251786
0.62059486 -0.28008577 -0.0032253959
0.62111264 -0.27853143 -0.0042276224
0.62192351 -0.27694434 -0.0042584199
0.62273443 -0.27535725 -0.0042892173
0.62354535 -0.27377015 -0.0043200152
0.62406754 -0.27220708 -0.0053224103
0.62459153 -0.27064049 -0.0063248733
0.62540424 -0.26904991 -0.0063557387
0.62621689 -0.26745933 -0.0063866042
0.62645936 -0.26590276 -0.008360995
0.62784225 -0.26427814 -0.0064483345
0.6283716 -0.26270106 -0.0074510602
0.62890279 -0.2611205 -0.0084537948
0.62971723 -0.2595264 -0.0084847286
0.63053173 -0.25793231 -0.0085156616
0.63134617 -0.25633821 -0.0085465945
0.63216066 -0.25474414 -0.0085775284
0.63297516 -0.25315005 -0.0086084614
0.6337896 -0.25155595 -0.0086393952
0.6346041 -0.24996187 -0.0086703282
0.63541859 -0.24836777 -0.0087012611
0.63623303 -0.24677368 -0.008732195
0.63704753 -0.24517959 -0.008763128
0.63786197 -0.2435855 -0.0087940618
0.63867646 -0.2419914 -0.0088249948
0.63949096 -0.24039732 -0.0088559277
0.6403054 -0.23880322 -0.0088868616
0.6411199 -0.23720914 -0.0089177946
0.6422025 -0.23563127 -0.0079763494
0.64328331 -0.23405692 -0.0070347777
0.64409602 -0.23246633 -0.0070656431
0.64543957 -0.23091869 -0.0051515475
0.64704412 -0.22940129 -0.0022647416
0.64785236 -0.22781944 -0.0022954373
0.64892334 -0.22626433 -0.0013535506
0.64999253 -0.22471271 -0.00041159484
0.65158188 -0.22322506 0.002475787
0.65290582 -0.22171591 0.0043906304
0.65448534 -0.22024751 0.007278386
0.6560595 -0.21878961 0.010166346
0.6576283 -0.21734218 0.013054451
0.66021776 -0.21606119 0.019834157
0.66356152 -0.21492685 0.029532904
0.66561383 -0.21361515 0.03436783
0.66664189 -0.21214402 0.035311345
0.66817403 -0.21076836 0.0382009
0.6649121 -0.20849638 0.022603555
0.62003088 -0.30813473 0.03884938
0.61957234 -0.30688527 0.034935575
0.61973417 -0.30549496 0.032963786
0.61989963 -0.30409765 0.030991919
0.61945897 -0.30281317 0.027077433
0.61811358 -0.30168912 0.020248875
0.61768991 -0.30037138 0.016333802
0.61757553 -0.29898497 0.013389715
0.61746651 -0.29758811 0.010445423
0.61766326 -0.29612955 0.0084723681
0.61786354 -0.29466403 0.0064991205
0.61806744 -0.29319149 0.0045257942
0.61827493 -0.29171196 0.0025523335
0.61848593 -0.29022542 0.0005786781
0.61929238 -0.28864706 0.00054805039
0.6195088 -0.28715003 -0.0014257513
0.62061113 -0.28552929 -0.00048482604
0.62112522 -0.28398633 -0.0014871425
0.6219334 -0.28240448 -0.0015178381
0.62274164 -0.28082266 -0.0015485338
0.62267822 -0.27933651 -0.0044945572
0.62348914 -0.27774945 -0.0045253546
0.6243 -0.27616236 -0.004556152
0.62511092 -0.27457526 -0.0045869495
0.62563485 -0.27301306 -0.0055896393
0.62616056 -0.27144739 -0.0065923976
0.62697327 -0.26985678 -0.006623263
0.62778598 -0.2682662 -0.0066541284
0.62803185 -0.26671141 -0.0086291078
0.62912881 -0.26510116 -0.0076879789
0.62994242 -0.26350883 -0.0077188783
0.63075596 -0.26191649 -0.0077497778
0.63156956 -0.26032415 -0.0077806772
0.63210422 -0.25874096 -0.0087837745
0.63291872 -0.25714687 -0.0088147083
0.63373315 -0.2555528 -0.0088456413
0.63454765 -0.2539587 -0.0088765742
0.63536215 -0.25236461 -0.0089075081
0.63617659 -0.25077051 -0.0089384411
0.63699108 -0.24917643 -0.008969374
0.63780558 -0.24758233 -0.0090003079
0.63862002 -0.24598823 -0.0090312408
0.63943452 -0.24439415 -0.0090621747
0.64024895 -0.24280006 -0.0090931077
0.64106345 -0.24120598 -0.0091240406
0.64187795 -0.23961188 -0.0091549745
0.64269239 -0.23801778 -0.0091859074
0.64377326 -0.23643903 -0.0082441671
0.6448524 -0.23486379 -0.0073023019
0.64566505 -0.23327319 -0.0073331674
0.6470052 -0.23172379 -0.0054184818
0.64807892 -0.23015903 -0.0044764699
0.64941281 -0.22862189 -0.0025614894
0.65048206 -0.22706588 -0.0016193078
0.65154952 -0.22551337 -0.00067705836
0.65313369 -0.22402306 0.0022112059
0.65445411 -0.22251214 0.0041266382
0.65577102 -0.22100823 0.0060422639
0.65759748 -0.2195805 0.0099041192
0.65864974 -0.21805774 0.010846946
0.6612289 -0.21676703 0.017628586
0.66481107 -0.21566015 0.028303415
0.66660267 -0.21430066 0.032166593
0.66788292 -0.2128685 0.034083556
0.66941077 -0.21148841 0.036973961
0.66667795 -0.20932259 0.023318497
0.62090713 -0.30903637 0.036652595
0.62076306 -0.3077209 0.033709005
0.6209293 -0.30633062 0.031736594
0.62109905 -0.30493334 0.029764106
0.62066621 -0.30365065 0.025848409
0.619636 -0.30247203 0.019989299
0.61861658 -0.30127242 0.014129839
0.61880964 -0.29982966 0.012156468
0.61840713 -0.29848745 0.0082396157
0.61860907 -0.2970272 0.006265847
0.61911237 -0.29550964 0.0052637123
0.61991435 -0.29394007 0.0052332543
0.6198284 -0.29251084 0.0022874577
0.62004292 -0.29102606 0.00031321344
0.62084931 -0.28944772 0.00028258577
0.62106919 -0.28795245 -0.0016918033
0.62216979 -0.28633082 -0.00075058441
0.62268561 -0.28478879 -0.0017531946
0.62349385 -0.28320694 -0.0017838903
0.62401235 -0.28165963 -0.0027866033
0.62395501 -0.28017443 -0.0057335431
0.62476683 -0.27858558 -0.0057643745
0.62586564 -0.27696744 -0.0048230877
0.6263904 -0.27540788 -0.0058260374
0.62720221 -0.27381906 -0.0058568688
0.62772965 -0.27225426 -0.0068599205
0.62825888 -0.27068594 -0.0078630988
0.62907243 -0.26909363 -0.0078939982
0.62960434 -0.26752007 -0.0088972207
0.63069957 -0.26590893 -0.007955797
0.63151318 -0.26431659 -0.0079866964
0.63204777 -0.26273781 -0.0089900205
0.63286227 -0.26114371 -0.0090209544
0.63367671 -0.25954962 -0.0090518873
0.63449121 -0.25795552 -0.0090828212
0.6353057 -0.25636142 -0.0091137541
0.63612014 -0.25476736 -0.0091446871
0.63693464 -0.25317326 -0.009175621
0.63774914 -0.25157917 -0.0092065539
0.63856357 -0.24998507 -0.0092374869
0.63937807 -0.24839099 -0.0092684207
0.64019251 -0.24679689 -0.0092993537
0.64100701 -0.24520279 -0.0093302876
0.6418215 -0.24360871 -0.0093612205
0.64263594 -0.24201462 -0.0093921535
0.64345044 -0.24042052 -0.0094230874
0.64426494 -0.23882644 -0.0094540203
0.64534408 -0.2372468 -0.0085119857
0.64642143 -0.23567066 -0.0075698248
0.64723414 -0.23408006 -0.0076006902
0.64857078 -0.23252888 -0.0056854174
0.64964277 -0.23096325 -0.0047431109
0.6509732 -0.22942431 -0.0028275417
0.65204072 -0.22786742 -0.0018850662
0.65310645 -0.22631404 -0.00094252301
0.6546855 -0.22482105 0.0019466258
0.65600246 -0.22330837 0.0038626466
0.65731591 -0.22180268 0.0057788612
0.65913546 -0.2203714 0.0096418932
0.66018599 -0.21884775 0.010585015
0.66300613 -0.21758802 0.018342124
0.66656846 -0.21647315 0.029020224
0.66810095 -0.21507114 0.031911138
0.67012882 -0.21376456 0.036749277
0.67139935 -0.21234286 0.03866706
0.6684404 -0.21014699 0.024033971
0.62270522 -0.30973551 0.037369683
0.62226135 -0.30849138 0.033453546
0.62212783 -0.30716807 0.030508814
0.622302 -0.30577078 0.028535645
0.6218769 -0.30448991 0.024618795
0.62115848 -0.30325493 0.01972972
0.61955017 -0.30217701 0.011924756
0.61974841 -0.30073252 0.0099506704
0.61965245 -0.29933572 0.0070045688
0.62045264 -0.29776961 0.0069741788
0.62095678 -0.29625469 0.0059717251
0.6214627 -0.29473627 0.0049692616
0.62167621 -0.29326203 0.0029946563
0.62159991 -0.29182673 4.7749909e-05
0.6224063 -0.29024839 1.7122242e-05
0.62262964 -0.28875488 -0.0019578557
0.62343782 -0.28717306 -0.0019885511
0.62424606 -0.28559121 -0.0020192468
0.6250543 -0.28400937 -0.0020499425
0.62528652 -0.28249839 -0.0040253182
0.62523526 -0.28101408 -0.0069731176
0.62604797 -0.27942351 -0.007003983
0.62686062 -0.2778329 -0.0070348484
0.62738889 -0.27627075 -0.0080382191
0.62848598 -0.27465174 -0.0070965793
0.62929869 -0.27306113 -0.0071274447
0.62982965 -0.2714937 -0.0081309173
0.63064325 -0.26990137 -0.0081618158
0.63117689 -0.26832873 -0.0091653327
0.6322704 -0.26671669 -0.0082236147
0.63280582 -0.26514053 -0.0092271995
0.63362026 -0.26354644 -0.0092581324
0.63443476 -0.26195234 -0.0092890663
0.63552469 -0.26034734 -0.0083472123
0.63633829 -0.258755 -0.0083781118
0.63715184 -0.25716266 -0.0084090112
0.63769269 -0.25557598 -0.009412799
0.63850713 -0.25398189 -0.0094437329
0.63932163 -0.25238782 -0.0094746659
0.64013606 -0.25079373 -0.0095055988
0.64095056 -0.24919963 -0.0095365327
0.64176506 -0.24760555 -0.0095674656
0.6425795 -0.24601145 -0.0095983995
0.64339399 -0.24441735 -0.0096293325
0.64447409 -0.24283159 -0.008687106
0.64528769 -0.24123925 -0.0087180045
0.64610124 -0.2396469 -0.0087489039
0.64665186 -0.238041 -0.0097530652
0.64799047 -0.23647754 -0.0078373495
0.64932549 -0.23492108 -0.0059215543
0.65039665 -0.23335281 -0.0049789879
0.65172541 -0.23180859 -0.0030628981
0.65253365 -0.23022676 -0.0030935938
0.65359944 -0.22866897 -0.0021508245
0.65466344 -0.22711469 -0.0012079865
0.6562373 -0.22561905 0.0016820447
0.65755081 -0.22410458 0.0035986542
0.6588608 -0.22259712 0.0055154571
0.6604203 -0.22112948 0.0084059741
0.66121781 -0.21956863 0.0083756857
0.66226661 -0.2180441 0.0093191592
0.66681975 -0.21705596 0.023895139
0.6700983 -0.21592125 0.033603221
0.67161852 -0.2145306 0.036495291
0.67288554 -0.21310712 0.038413666
0.66995245 -0.21092458 0.023776159
0.62510633 -0.31029376 0.040031344
0.62436432 -0.30912623 0.035142079
0.6242342 -0.30780905 0.032196529
0.62410945 -0.30648139 0.029250836
0.62339073 -0.30526838 0.024360688
0.62208337 -0.30415949 0.017525883
0.62108642 -0.30296701 0.011662824
0.62128812 -0.30152431 0.0096881501
0.62178957 -0.30001903 0.0086856289
0.62199754 -0.29856405 0.0067107747
0.6225034 -0.29705003 0.0057080276
0.62301105 -0.29553249 0.0047052689
0.62322795 -0.29406002 0.0027300762
0.62315685 -0.29262739 -0.00021771362
0.6239633 -0.29104906 -0.0002483413
0.62419003 -0.28955734 -0.0022239077
0.62499827 -0.28797549 -0.0022546034
0.62580651 -0.28639364 -0.0022852989
0.62661469 -0.28481179 -0.0023159946
0.62685037 -0.28330261 -0.0042919591
0.62680429 -0.28182095 -0.0072406419
0.627617 -0.28023037 -0.0072715073
0.62786251 -0.2787019 -0.009247846
0.62867701 -0.27710783 -0.0092787789
0.62977326 -0.27548617 -0.0083369361
0.63058686 -0.27389383 -0.0083678355
0.63140041 -0.27230147 -0.008398735
0.63249314 -0.27068684 -0.0074566999
0.63274938 -0.26913738 -0.0094334455
0.6341185 -0.26750565 -0.0075184307
0.63465476 -0.26593211 -0.0085223326
0.63519281 -0.26435509 -0.0095262453
0.63600725 -0.262761 -0.0095571792
0.63709551 -0.2611551 -0.0086150309
0.63818192 -0.25955269 -0.0076727578
0.63899463 -0.25796211 -0.0077036233
0.6395362 -0.25637808 -0.0087077282
0.64007968 -0.25479054 -0.0097118458
0.64089411 -0.25319645 -0.0097427787
0.64170861 -0.25160238 -0.0097737117
0.64252305 -0.25000829 -0.0098046456
0.64333755 -0.24841419 -0.0098355785
0.64415205 -0.24682009 -0.0098665124
0.64496648 -0.24522601 -0.0098974453
0.64604485 -0.24363935 -0.0089549236
0.64712149 -0.24205619 -0.0080122771
0.64767206 -0.24045466 -0.0090167224
0.6484856 -0.23886232 -0.0090476219
0.6500802 -0.23731327 -0.0061576925
0.65089107 -0.23572618 -0.00618849
0.65247762 -0.23419286 -0.0032982547
0.65328586 -0.23261103 -0.0033289501
0.65409404 -0.23102918 -0.0033596458
0.6551581 -0.22947052 -0.0024165818
0.65622044 -0.22791536 -0.0014734501
0.65778905 -0.22641705 0.0014174647
0.65909916 -0.22490081 0.0033346617
0.6604057 -0.22339158 0.0052520535
0.66196001 -0.22192125 0.0081434539
0.66300803 -0.22039409 0.0090871863
0.66380459 -0.218835 0.0090569323
0.67360198 -0.215378 0.038189504
0.67461777 -0.21391381 0.039134402
0.67269021 -0.21192303 0.028389243
0.62659252 -0.31105801 0.039777946
0.62495726 -0.31010103 0.031970289
0.62483501 -0.3087813 0.029023811
0.62471813 -0.30745104 0.026077075
0.62401068 -0.30623719 0.021185353
0.62331223 -0.30500585 0.016293293
0.62262267 -0.30375704 0.011400891
0.62341839 -0.30219966 0.011370671
0.62333095 -0.30081168 0.0084228152
0.62354243 -0.29935852 0.006447372
0.62405002 -0.29784536 0.0054443297
0.6242677 -0.29637992 0.0034686492
0.6241982 -0.29495695 0.00052011292
0.62471384 -0.29342806 -0.00048317714
0.62494224 -0.29194161 -0.0024592641
0.62575048 -0.29035977 -0.0024899598
0.62655866 -0.28877792 -0.0025206555
0.6273669 -0.28719607 -0.0025513512
0.62817514 -0.28561425 -0.0025820467
0.62841427 -0.28410682 -0.0045585996
0.62837338 -0.28262782 -0.0075081652
0.62918603 -0.28103724 -0.0075390306
0.62971687 -0.27947861 -0.0085429559
0.6302495 -0.27791646 -0.0095468909
0.631064 -0.27632236 -0.0095778238
0.63187844 -0.2747283 -0.0096087577
0.63297123 -0.27310923 -0.0086665526
0.63406217 -0.2714937 -0.0077242232
0.63487488 -0.26990309 -0.0077550886
0.63568753 -0.26831251 -0.007785954
0.63622552 -0.26673988 -0.0087901503
0.6367653 -0.26516375 -0.0097943572
0.6375798 -0.26356965 -0.0098252902
0.63839424 -0.26197556 -0.0098562241
0.63947982 -0.26037052 -0.008913748
0.64056367 -0.25876898 -0.0079711461
0.64137638 -0.25717837 -0.008002012
0.64192057 -0.25559351 -0.0090064462
0.64273417 -0.25400114 -0.0090373456
0.64354777 -0.2524088 -0.0090682451
0.6440956 -0.25081694 -0.010072757
0.64491004 -0.24922284 -0.01010369
0.64598846 -0.24763179 -0.0091609424
0.64680207 -0.24603945 -0.0091918418
0.64761567 -0.2444471 -0.0092227412
0.64842921 -0.24285477 -0.0092536407
0.64924282 -0.24126242 -0.0092845401
0.65031588 -0.23968187 -0.0083415313
0.65164578 -0.23811837 -0.0064246273
0.6524567 -0.23653127 -0.0064554247
0.65403807 -0.23499531 -0.0035643068
0.65484625 -0.23341346 -0.0035950025
0.65565449 -0.23183163 -0.0036256979
0.65697098 -0.23029436 -0.0017082858
0.65777737 -0.22871602 -0.0017389136
0.65934086 -0.22721505 0.0011528835
0.66064751 -0.22569703 0.0030706702
0.66195059 -0.22418602 0.0049886508
0.66325009 -0.222682 0.0069067092
0.66429722 -0.2211522 0.0078506442
0.66509473 -0.21959135 0.0078203557
0.67508817 -0.21614227 0.037936106
0.67634654 -0.21471874 0.039855726
0.67589754 -0.21299919 0.034954194
0.62867832 -0.3116796 0.041469648
0.62735403 -0.31066364 0.03463234
0.62604219 -0.30962315 0.027794503
0.62563425 -0.30835989 0.023874257
0.62493724 -0.30714703 0.018980937
0.62483984 -0.30579144 0.016032832
0.62474781 -0.30442536 0.013084466
0.62495464 -0.30298969 0.011108739
0.62516505 -0.30154702 0.0091328202
0.62567079 -0.30004176 0.0081296777
0.62559664 -0.2986407 0.0051806322
0.62581778 -0.29717702 0.0032043629
0.62633157 -0.29565603 0.002200915
0.62627077 -0.2942287 -0.00074864068
0.62650269 -0.29274404 -0.0027253174
0.62731087 -0.29116219 -0.0027560131
0.62811911 -0.28958037 -0.0027867088
0.62892735 -0.28799853 -0.0028174045
0.62973553 -0.28641668 -0.0028480999
0.62997812 -0.28491104 -0.0048252419
0.63050622 -0.28336203 -0.0058292332
0.63131714 -0.28177494 -0.0058600302
0.63156778 -0.28025353 -0.0078374203
0.63210124 -0.27869403 -0.0088416729
0.63319319 -0.27707234 -0.0078991512
0.63400584 -0.27548176 -0.0079300161
0.63481855 -0.27389115 -0.007960882
0.6356312 -0.27230057 -0.007991747
0.63644391 -0.27070999 -0.0080226129
0.63725662 -0.26911938 -0.0080534779
0.63834226 -0.26750997 -0.007110775
0.63888198 -0.26593819 -0.0081152087
0.63969469 -0.26434761 -0.0081460746
0.64050734 -0.26275703 -0.0081769396
0.64132005 -0.26116642 -0.0082078055
0.6421327 -0.25957584 -0.0082386704
0.64294541 -0.25798526 -0.0082695363
0.64375812 -0.25639465 -0.0083004013
0.64457077 -0.25480407 -0.0083312672
0.64511853 -0.25321656 -0.0093360627
0.64593214 -0.25162423 -0.0093669621
0.64648259 -0.2500315 -0.010371803
0.64782155 -0.24844171 -0.0084547289
0.6486342 -0.24685112 -0.0084855938
0.6494469 -0.24526052 -0.0085164597
0.65025961 -0.24366994 -0.0085473247
0.65107226 -0.24207935 -0.0085781896
0.6521427 -0.24049966 -0.0076349098
0.65321141 -0.23892346 -0.0066915629
0.65402228 -0.23733638 -0.0067223604
0.65559846 -0.23579775 -0.00383036
0.6564067 -0.2342159 -0.0038610557
0.6574682 -0.23265371 -0.002917436
0.65852791 -0.23109503 -0.0019737494
0.65933436 -0.22951669 -0.0020043771
0.66089267 -0.22801304 0.00088830345
0.66219586 -0.22649325 0.0028066777
0.66349548 -0.22498047 0.0047252467
0.66454357 -0.22344452 0.0056693759
0.66583693 -0.22194399 0.0075881234
0.66958821 -0.22078696 0.019253045
0.67454433 -0.21984893 0.035791941
0.67604899 -0.21845028 0.0386866
0.67681783 -0.21694542 0.038657397
0.67782933 -0.21548124 0.03960292
0.67473042 -0.21329972 0.023977479
0.62986296 -0.31251433 0.040243994
0.62795728 -0.31164378 0.031458784
0.62695658 -0.31053552 0.025591752
0.62655729 -0.30927232 0.021670202
0.62645972 -0.30792993 0.018721359
0.62636745 -0.306577 0.015772372
0.62628061 -0.30521357 0.012823123
0.62678272 -0.30371973 0.011819889
0.62699568 -0.30228058 0.0098434724
0.62750226 -0.30077797 0.0088400114
0.62743235 -0.29938132 0.0058901752
0.62765604 -0.29792115 0.0039132936
0.62788337 -0.29645401 0.001936334
0.62782776 -0.29502937 -0.0010141042
0.62863421 -0.29345104 -0.0010447318
0.62887132 -0.29196465 -0.0030220654
0.62967956 -0.2903828 -0.0030527608
0.63048774 -0.28880095 -0.0030834565
0.63129598 -0.28721911 -0.0031141522
0.63154203 -0.28571525 -0.0050918823
0.63151145 -0.28424159 -0.0080432128
0.63232416 -0.28265101 -0.0080740778
0.63313687 -0.2810604 -0.0081049437
0.63339454 -0.27953377 -0.010083116
0.6344856 -0.27790946 -0.00914039
0.63557494 -0.27628863 -0.0081975395
0.63638759 -0.27469802 -0.0082284054
0.6372003 -0.27310744 -0.0082592703
0.63801295 -0.27151686 -0.0082901362
0.63882565 -0.26992625 -0.0083210012
0.63963836 -0.26833567 -0.0083518671
0.64045101 -0.26674509 -0.008382732
0.64126372 -0.26515448 -0.0084135979
0.64207643 -0.2635639 -0.0084444629
0.64288908 -0.26197332 -0.0084753279
0.64370179 -0.26038271 -0.0085061938
0.64451444 -0.25879213 -0.0085370587
0.64532715 -0.25720152 -0.0085679246
0.64613986 -0.25561094 -0.0085987896
0.64695251 -0.25402036 -0.0086296555
0.64776522 -0.25242975 -0.0086605204
0.64857787 -0.25083917 -0.0086913863
0.64939058 -0.24924858 -0.0087222513
0.65020329 -0.24765798 -0.0087531172
0.65101594 -0.24606739 -0.0087839821
0.65182865 -0.24447681 -0.008814848
0.65264136 -0.24288622 -0.008845713
0.65396613 -0.24131565 -0.0069276998
0.65477699 -0.23972857 -0.0069584972
0.65558791 -0.23814148 -0.0069892947
0.65715891 -0.23660018 -0.0040964121
0.65796709 -0.23501834 -0.004127108
0.65902692 -0.23345526 -0.0031831942
0.6600849 -0.23189569 -0.0022392129
0.66089135 -0.23031734 -0.0022698406
0.66244447 -0.22881104 0.00062372233
0.66374421 -0.22728947 0.0025426864
0.66504037 -0.22577491 0.004461844
0.66633296 -0.22426735 0.0063810786
0.66737664 -0.22273576 0.0073256032
0.67306262 -0.2218302 0.026793217
0.67700809 -0.22075301 0.039437614
0.6777761 -0.21924992 0.039408445
0.67854404 -0.21774682 0.039379276
0.67955291 -0.21628349 0.040325183
0.6762408 -0.21407641 0.023719963
0.63134748 -0.31327772 0.039990894
0.62975276 -0.31234378 0.03217626
0.62876147 -0.31124261 0.026307439
0.62807459 -0.31005257 0.021411506
0.62798214 -0.30871284 0.018461782
0.62789512 -0.30736256 0.015511911
0.6278134 -0.30600181 0.012561779
0.62802714 -0.30456969 0.010584876
0.62824446 -0.3031306 0.0086077787
0.62875366 -0.3016271 0.0076040481
0.62897724 -0.30017576 0.0056267716
0.62920439 -0.29871738 0.0036493011
0.62943518 -0.29725203 0.0016717528
0.62938476 -0.29583004 -0.0012795677
0.63019115 -0.29425168 -0.0013101954
0.63043177 -0.29276708 -0.0032881175
0.63123995 -0.29118523 -0.0033188132
0.63204819 -0.28960338 -0.0033495086
0.63285637 -0.28802153 -0.0033802043
0.63310587 -0.28651944 -0.0053585232
0.63308054 -0.28504845 -0.0083107371
0.63444835 -0.28338513 -0.0063939006
0.6347059 -0.28186727 -0.0083724679
0.63551861 -0.28027669 -0.0084033329
0.63633126 -0.27868611 -0.0084341988
0.63686997 -0.27712488 -0.009439108
0.63768357 -0.27553251 -0.0094700074
0.63876933 -0.27391431 -0.0085267946
0.6390394 -0.27237198 -0.010505895
0.64039469 -0.27073315 -0.0085885255
0.6412074 -0.26914254 -0.0086193914
0.64175147 -0.26757082 -0.0096245036
0.64256501 -0.26597849 -0.009655403
0.64364547 -0.26437077 -0.0087119872
0.64392626 -0.26280743 -0.010691495
0.64527082 -0.26118958 -0.008773718
0.64608353 -0.259599 -0.008804583
0.64689618 -0.25800842 -0.0088354489
0.64770889 -0.25641781 -0.0088663138
0.6485216 -0.25482723 -0.0088971797
0.64933425 -0.25323665 -0.0089280447
0.65014696 -0.25164604 -0.0089589106
0.65095961 -0.25005546 -0.0089897756
0.65177232 -0.24846487 -0.0090206414
0.65258503 -0.24687427 -0.0090515064
0.65339768 -0.24528368 -0.0090823723
0.65421039 -0.2436931 -0.0091132373
0.6555317 -0.24212076 -0.0071946355
0.65634263 -0.24053366 -0.0072254329
0.65715349 -0.23894657 -0.0072562303
0.6587193 -0.23740262 -0.0043624644
0.65952754 -0.23582077 -0.0043931599
0.66058558 -0.2342568 -0.0034489515
0.6616419 -0.23269634 -0.0025046763
0.66244829 -0.23111799 -0.0025353043
0.66399622 -0.22960904 0.00035914118
0.6652925 -0.2280857 0.0022786937
0.66658527 -0.22656935 0.0041984399
0.6676299 -0.22503164 0.0051431567
0.66891634 -0.22352755 0.0070630829
0.67505318 -0.22266798 0.028486932
0.67897445 -0.22158277 0.041135281
0.67974067 -0.22008316 0.041106179
0.68050683 -0.21858357 0.041077081
0.68127304 -0.21708396 0.041047983
0.67775112 -0.21485311 0.023462446
0.63342118 -0.31389308 0.041684713
0.6324259 -0.31282523 0.035814669
0.63173425 -0.31166589 0.030917773
0.63017571 -0.31069532 0.023099937
0.62950462 -0.30949575 0.018202204
0.62913257 -0.30821338 0.014277848
0.62934619 -0.30679005 0.012300435
0.62985176 -0.30529797 0.011296614
0.63007164 -0.30386236 0.0093190204
0.6302951 -0.30241978 0.0073412331
0.63080782 -0.30091369 0.0063371393
0.63103753 -0.29945886 0.0043591144
0.63098693 -0.29805002 0.0014071728
0.63150769 -0.29652819 0.00040277335
0.63174814 -0.29505235 -0.0015756589
0.63199216 -0.29356951 -0.0035541696
0.6328004 -0.29198766 -0.0035848652
0.63360858 -0.29040584 -0.0036155609
0.63441682 -0.28882399 -0.0036462564
0.63466978 -0.28732365 -0.0056251641
0.63464957 -0.28585532 -0.0085782604
0.63601393 -0.28419024 -0.0066608354
0.63654989 -0.28263864 -0.0076658116
0.63708764 -0.28108355 -0.0086708562
0.63790035 -0.27949297 -0.0087017221
0.63844073 -0.27793264 -0.0097069256
0.63925433 -0.27634028 -0.009737825
0.64033842 -0.27472118 -0.008794318
0.64088148 -0.2731556 -0.0097996239
0.64196378 -0.27154002 -0.0088560488
0.64277643 -0.26994941 -0.0088869138
0.64358914 -0.26835883 -0.0089177797
0.64440185 -0.26676825 -0.0089486446
0.6452145 -0.26517764 -0.0089795105
0.64602721 -0.26358706 -0.0090103755
0.64683986 -0.26199648 -0.0090412414
0.64765257 -0.26040587 -0.0090721063
0.64846528 -0.25881529 -0.0091029722
0.64953858 -0.2572172 -0.008159115
0.65035039 -0.25562835 -0.0081899464
0.65090334 -0.25404352 -0.009195568
0.65171599 -0.25245291 -0.0092264339
0.65304279 -0.25086132 -0.0073075825
0.65334135 -0.24927174 -0.0092881648
0.65415406 -0.24768114 -0.0093190297
0.65496677 -0.24609056 -0.0093498947
0.65603292 -0.24450645 -0.0084057664
0.65709728 -0.24292585 -0.0074615702
0.6579082 -0.24133876 -0.0074923676
0.65871912 -0.23975167 -0.0075231651
0.66027975 -0.23820505 -0.0046285163
0.66108799 -0.23662321 -0.0046592122
0.6621443 -0.23505835 -0.00371471
0.66319883 -0.23349701 -0.0027701398
0.66400528 -0.23191866 -0.0028007678
0.66554803 -0.23040703 9.4561146e-05
0.66684085 -0.22888193 0.0020147013
0.66837376 -0.22738954 0.0049104039
0.6696586 -0.22588018 0.0068308506
0.67069793 -0.22434857 0.0077760555
0.67197645 -0.22285146 0.0096967397
0.67877322 -0.22211431 0.034054421
0.68169832 -0.22091286 0.042805035
0.68198615 -0.21934429 0.04082486
0.68322712 -0.21792066 0.042746972
0.67878854 -0.21555033 0.021253649
0.63460928 -0.31472957 0.040458415
0.63508528 -0.31329963 0.039455485
0.63439864 -0.31215173 0.034557257
0.63197976 -0.31140414 0.02381566
0.63044846 -0.31041443 0.015994903
0.63066196 -0.30899987 0.014017094
0.63116652 -0.30751389 0.013013022
0.63167292 -0.30602443 0.012008939
0.63189536 -0.30459237 0.010030792
0.63240623 -0.30309418 0.0090265395
0.63235098 -0.30170724 0.00607403
0.63258415 -0.3002542 0.0040954165
0.63253874 -0.29884803 0.0011425916
0.6333425 -0.29727495 0.0011120659
0.63330513 -0.29585302 -0.0018411224
0.63383204 -0.29432333 -0.0028459853
0.63463938 -0.29274321 -0.002876647
0.63516903 -0.29120827 -0.003881613
0.63597727 -0.28962642 -0.0039123087
0.63650954 -0.28808624 -0.0049173753
0.63649362 -0.28662232 -0.0078713782
0.63757956 -0.28499535 -0.0069277706
0.63839042 -0.28340822 -0.0069585685
0.63892901 -0.28185579 -0.0079638725
0.63946939 -0.28029984 -0.0089692464
0.64028209 -0.27870926 -0.0090001114
0.64109474 -0.27711865 -0.0090309773
0.64217621 -0.27550042 -0.0080871982
0.64272016 -0.27393746 -0.0090927081
0.64353281 -0.27234688 -0.0091235731
0.64434552 -0.2707563 -0.009154438
0.64515817 -0.26916569 -0.0091853039
0.64623517 -0.26755622 -0.0082413554
0.64731032 -0.26595023 -0.0072973408
0.64759624 -0.26439393 -0.0092778997
0.64840895 -0.26280335 -0.0093087656
0.6492216 -0.26121274 -0.0093396306
0.65029413 -0.25961202 -0.0083955126
0.6513648 -0.25801477 -0.0074513284
0.65217572 -0.25642768 -0.0074821259
0.65272951 -0.25484547 -0.0084880078
0.65379751 -0.25325349 -0.0075437208
0.65460843 -0.25166643 -0.0075745182
0.65541929 -0.2500793 -0.0076053157
0.65623021 -0.24849223 -0.0076361131
0.65678847 -0.24690127 -0.008642165
0.65760022 -0.24531244 -0.0086729964
0.65916467 -0.24374565 -0.0057778032
0.66022372 -0.24217117 -0.0048331772
0.66103196 -0.24058934 -0.0048638731
0.66184014 -0.23900749 -0.0048945686
0.66264838 -0.23742564 -0.004925264
0.66370296 -0.2358599 -0.0039804671
0.66475582 -0.23429766 -0.0030356033
0.66556227 -0.23271932 -0.0030662313
0.66709983 -0.23120503 -0.00017002001
0.6683892 -0.22967814 0.0017507098
0.66991693 -0.22818311 0.0046472945
0.67119831 -0.22667196 0.0065683303
0.67199576 -0.22511111 0.0065380419
0.67351103 -0.22364058 0.0094351023
0.68074131 -0.22294495 0.035751794
0.68317413 -0.22167179 0.042553402
0.68393856 -0.2201757 0.042524371
0.68470299 -0.21867959 0.04249534
0.6805371 -0.21636765 0.021971477
0.63667434 -0.31534052 0.042153705
0.63686001 -0.31398898 0.040176436
0.63675988 -0.31270269 0.037225004
0.63608819 -0.31154698 0.032325067
0.63341224 -0.31085521 0.020605575
0.6321913 -0.30978632 0.013756339
0.63298345 -0.30823597 0.013726255
0.63320571 -0.30681267 0.011747596
0.63343161 -0.3053824 0.0097688604
0.63337797 -0.30400512 0.0068156035
0.63361192 -0.30255911 0.0048365612
0.63413078 -0.30104953 0.003831719
0.63409054 -0.29964602 0.00087801152
0.63489425 -0.29807293 0.00084748585
0.63486207 -0.29665366 -0.002106586
0.63566852 -0.29507533 -0.0021372137
0.63647497 -0.29349697 -0.0021678417
0.63700539 -0.29196468 -0.0031730672
0.63753766 -0.29042885 -0.0041783606
0.6383459 -0.288847 -0.0042090565
0.63833427 -0.28738752 -0.0071639093
0.63968992 -0.28572237 -0.0052451813
0.64049906 -0.28413877 -0.0052759112
0.64076698 -0.28262624 -0.0072563016
0.64130813 -0.28107294 -0.0082619339
0.64185113 -0.27951613 -0.0092676347
0.64266384 -0.27792552 -0.0092984997
0.64401054 -0.27627787 -0.0073794913
0.6442892 -0.27474433 -0.0093602305
0.64510185 -0.27315375 -0.0093910964
0.64591455 -0.27156317 -0.0094219614
0.64699066 -0.26995105 -0.008477754
0.64806503 -0.26834244 -0.007533479
0.64861429 -0.26677337 -0.0085394168
0.64916533 -0.26520079 -0.0095454231
0.64997798 -0.26361021 -0.009576289
0.65079069 -0.26201963 -0.0096071539
0.65211952 -0.26040697 -0.0076874662
0.65293044 -0.25881988 -0.0077182637
0.6537413 -0.25723279 -0.0077490616
0.65455222 -0.25564569 -0.007779859
0.65561759 -0.25405458 -0.0068352437
0.65642762 -0.25246924 -0.0068660071
0.65723765 -0.25088388 -0.0068967706
0.65779579 -0.24929732 -0.0079030488
0.65835577 -0.24770726 -0.008909394
0.65941763 -0.24612315 -0.0079646436
0.66022849 -0.24453606 -0.0079954416
0.66178417 -0.24297361 -0.0050992295
0.66259235 -0.24139176 -0.005129925
0.66340059 -0.23980993 -0.0051606209
0.66420883 -0.23822808 -0.0051913164
0.66526169 -0.23666145 -0.0042462256
0.66631281 -0.23509833 -0.003301067
0.66760498 -0.23355742 -0.0013799284
0.66865164 -0.23200303 -0.00043460002
0.66993755 -0.23047437 0.0014867174
0.67146009 -0.22897667 0.0043841857
0.67273802 -0.22746374 0.0063058096
0.67353547 -0.2259029 0.0062755216
0.68050849 -0.22510159 0.031623084
0.68459547 -0.22401972 0.045259137
0.68512148 -0.22249617 0.044254083
0.68541443 -0.22093463 0.042272739
0.68571091 -0.21936612 0.040291321
0.63873255 -0.31594792 0.043850113
0.63863134 -0.31467655 0.040898036
0.63853544 -0.3133947 0.037945695
0.63787144 -0.31224516 0.03304432
0.63435781 -0.31177479 0.018397981
0.63457555 -0.31036901 0.016419038
0.63451278 -0.30902243 0.0134655
0.63502169 -0.30753651 0.012460805
0.63468564 -0.30623507 0.0085323416
0.6352008 -0.30473688 0.0075274082
0.63543731 -0.30329436 0.0055478122
0.63567734 -0.30184487 0.0035680213
0.63564235 -0.30044401 0.0006134304
0.63644606 -0.29887092 0.00058290467
0.6369729 -0.29734999 -0.00042241105
0.63722545 -0.295876 -0.0024026772
0.6380319 -0.29429764 -0.0024333051
0.63883835 -0.2927193 -0.0024639328
0.63937145 -0.29118612 -0.0034694872
0.63990629 -0.28964946 -0.0044751083
0.63989985 -0.2881926 -0.0074308435
0.64152271 -0.28648579 -0.0045364997
0.64233094 -0.28490394 -0.0045671952
0.64260143 -0.28339493 -0.0065481407
0.64314342 -0.28184426 -0.0075540338
0.64395434 -0.28025717 -0.0075848312
0.64423287 -0.27873242 -0.0095660239
0.64557612 -0.27708298 -0.0076464261
0.64585823 -0.27555123 -0.0096277548
0.64667094 -0.27396065 -0.0096586207
0.64774621 -0.27234587 -0.0087141516
0.64881974 -0.27073461 -0.0077696159
0.64963061 -0.26914752 -0.0078004138
0.65018159 -0.26757935 -0.0088066459
0.65073436 -0.26600769 -0.0098129474
0.65180516 -0.26440167 -0.0088683087
0.65261698 -0.26281282 -0.0088991402
0.65368515 -0.26121205 -0.007954401
0.65449601 -0.25962499 -0.0079851989
0.65530694 -0.25803787 -0.0080159958
0.6561178 -0.2564508 -0.0080467938
0.65768707 -0.25484893 -0.0051504122
0.65849531 -0.25326708 -0.0051811081
0.65905249 -0.25168666 -0.0061875782
0.65936142 -0.25010243 -0.0081699835
0.66017228 -0.24851534 -0.0082007805
0.6609832 -0.24692824 -0.0082315784
0.66179413 -0.24534115 -0.0082623763
0.66334456 -0.24377604 -0.0053652818
0.6641528 -0.24219421 -0.0053959773
0.66496104 -0.24061236 -0.0054266728
0.66576922 -0.23903051 -0.0054573687
0.66682041 -0.237463 -0.0045119841
0.66786975 -0.23589899 -0.0035665305
0.66915852 -0.2343563 -0.0016448033
0.67020339 -0.23280104 -0.00069918117
0.67172527 -0.23129191 0.002198942
0.67300326 -0.22977023 0.0041210768
0.67427772 -0.22825553 0.0060432884
0.67507517 -0.22669469 0.0060129999
0.67964536 -0.22558706 0.021604579
0.68536144 -0.22468577 0.042079173
0.68659383 -0.22325332 0.04400304
0.68712336 -0.22172715 0.042997621
0.6813848 -0.21924372 0.015626555
0.64020836 -0.31670684 0.043598484
0.64039916 -0.31536236 0.041620165
0.64002168 -0.31415898 0.037692297
0.63879627 -0.31315848 0.030840028
0.63729924 -0.31220406 0.02301248
0.63638294 -0.311084 0.017133946
0.63604212 -0.30980888 0.013204746
0.63655281 -0.30832386 0.012199757
0.63622361 -0.30702597 0.0082701147
0.63702017 -0.30546686 0.0082398606
0.63698047 -0.30408794 0.0052847029
0.63722396 -0.3026402 0.0033043239
0.63774806 -0.30112889 0.0022988829
0.63799787 -0.29966894 0.00031832352
0.63880163 -0.29809582 0.00028779756
0.63878244 -0.29667667 -0.0026681407
0.63958889 -0.2950983 -0.0026987686
0.64039528 -0.29351997 -0.0027293963
0.64093012 -0.29198769 -0.0037352445
0.64146674 -0.29045188 -0.0047411607
0.64227498 -0.28887004 -0.0047718566
0.64308316 -0.28728822 -0.0048025516
0.64389139 -0.28570637 -0.0048332475
0.64443243 -0.28416184 -0.0058393334
0.6444428 -0.28268489 -0.008796392
0.64525461 -0.28109607 -0.0088272234
0.6458019 -0.27953929 -0.0098335473
0.64714175 -0.27788809 -0.0079133613
0.64742732 -0.2763581 -0.0098952781
0.64823997 -0.27476752 -0.009926144
0.64931357 -0.27315184 -0.0089813806
0.65038532 -0.27153972 -0.008036552
0.65119624 -0.26995263 -0.008067349
0.65200716 -0.26836553 -0.0080981469
0.6523034 -0.26681456 -0.010080471
0.65362895 -0.26519135 -0.0081597418
0.65443981 -0.26360425 -0.0081905387
0.65525073 -0.26201716 -0.0082213366
0.65606165 -0.26043007 -0.0082521336
0.65687251 -0.25884297 -0.0082829315
0.65768343 -0.25725588 -0.0083137294
0.65874535 -0.25566298 -0.007368525
0.6600557 -0.25406954 -0.00544716
0.66061467 -0.25249001 -0.0064539248
0.660927 -0.25090751 -0.0084369192
0.66173792 -0.24932043 -0.0084677162
0.66254884 -0.24773334 -0.0084985141
0.6633597 -0.24614625 -0.008529312
0.66490501 -0.24457848 -0.0056313337
0.66571319 -0.24299663 -0.0056620296
0.66652143 -0.2414148 -0.0056927251
0.66732967 -0.23983295 -0.0057234205
0.66837907 -0.23826455 -0.0047777412
0.66942674 -0.23669964 -0.003831994
0.67071205 -0.23515518 -0.0019096782
0.67199373 -0.23361771 1.2714498e-05
0.67350954 -0.23210768 0.0029118129
0.67454642 -0.23056379 0.0038579677
0.67581743 -0.22904731 0.0057807676
0.68806624 -0.2240105 0.043751996
0.64168423 -0.31746578 0.043346852
0.64187843 -0.31612307 0.041367944
0.64207625 -0.31477335 0.039388843
0.64142776 -0.31363618 0.034484591
0.64191777 -0.31219578 0.033480216
0.63846844 -0.31172755 0.018824572
0.63841331 -0.31039152 0.015869312
0.63808388 -0.30911121 0.011938708
0.63748276 -0.3078813 0.0070326556
0.63828021 -0.30632046 0.0070023676
0.63852364 -0.30488148 0.0050215935
0.63877058 -0.30343553 0.0030406262
0.63902116 -0.30198258 0.0010595799
0.63954967 -0.30046692 5.3743508e-05
0.64035338 -0.29889381 2.3217533e-05
0.64033943 -0.2974773 -0.0029336042
0.64114583 -0.29589897 -0.0029642321
0.64195228 -0.29432061 -0.0029948598
0.64248884 -0.29278922 -0.0040010028
0.64302713 -0.29125431 -0.005007213
0.64383537 -0.28967246 -0.0050379084
0.6446436 -0.28809065 -0.0050686039
0.64545178 -0.2865088 -0.0050992994
0.6459946 -0.28496516 -0.0061056791
0.64627463 -0.28345445 -0.0080879042
0.64708555 -0.28186736 -0.0081187012
0.64789647 -0.28028026 -0.0081494991
0.64870733 -0.27869317 -0.008180296
0.64899635 -0.27716497 -0.010162802
0.65006906 -0.2755467 -0.0092177792
0.65114003 -0.27393189 -0.0082726888
0.65195096 -0.2723448 -0.0083034858
0.65276182 -0.2707577 -0.0083342837
0.65357274 -0.26917061 -0.0083650816
0.65438366 -0.26758355 -0.0083958786
0.65519452 -0.26599643 -0.0084266765
0.65600544 -0.26440936 -0.0084574735
0.6568163 -0.26282227 -0.0084882714
0.65762722 -0.26123518 -0.0085190684
0.65843815 -0.25964808 -0.0085498663
0.65924901 -0.25806099 -0.0085806632
0.66005993 -0.2564739 -0.0086114611
0.66161615 -0.25487196 -0.0057132123
0.66217679 -0.25329334 -0.006720271
0.66273928 -0.25171119 -0.0077274563
0.66379505 -0.25012612 -0.0067817303
0.66460413 -0.24854255 -0.0068124598
0.66541326 -0.24695896 -0.0068431892
0.6664654 -0.24538091 -0.005897386
0.66727364 -0.24379908 -0.0059280815
0.66808188 -0.24221723 -0.0059587774
0.66913044 -0.24064618 -0.0050128382
0.67017728 -0.23907864 -0.00406683
0.67098367 -0.23750031 -0.0040974575
0.67226553 -0.23595406 -0.002174553
0.67401743 -0.23445043 0.0017019706
0.67505443 -0.23290214 0.002648409
0.67608958 -0.23135735 0.0035948581
0.67735714 -0.2298391 0.0055182474
0.68100822 -0.22365582 0.0073511703
0.64335775 -0.31688377 0.041115724
0.64384145 -0.31546 0.040111359
0.64404541 -0.31410682 0.038131569
0.64509499 -0.31252965 0.039077699
0.63998741 -0.31250867 0.018565584
0.63993752 -0.31117532 0.01560944
0.63905895 -0.3100327 0.009726787
0.63929957 -0.30860776 0.0077456627
0.63981992 -0.30711225 0.0067398469
0.6400668 -0.30567506 0.0047584842
0.6403172 -0.30423087 0.002776928
0.64084476 -0.30272135 0.0017708984
0.64110142 -0.30126491 -0.00021083764
0.64190519 -0.29969183 -0.00024136361
0.64189637 -0.29827797 -0.0031990684
0.64270282 -0.29669961 -0.0032296963
0.64350927 -0.29512128 -0.003260324
0.6440475 -0.29359078 -0.0042667608
0.64458758 -0.29205677 -0.0052732648
0.64539582 -0.29047492 -0.0053039608
0.64620399 -0.28889307 -0.0053346562
0.64701223 -0.28731126 -0.0053653517
0.64755672 -0.28576848 -0.0063720262
0.64810306 -0.28422222 -0.0073788264
0.64865112 -0.28267246 -0.0083856359
0.64946204 -0.28108537 -0.0084164338
0.65027297 -0.27949828 -0.0084472308
0.65108383 -0.27791119 -0.0084780287
0.65189475 -0.27632409 -0.0085088266
0.65270567 -0.274737 -0.0085396236
0.65351653 -0.27314991 -0.0085704215
0.65432745 -0.27156281 -0.0086012185
0.65513831 -0.26997572 -0.0086320164
0.65594923 -0.26838863 -0.0086628133
0.65676016 -0.26680154 -0.0086936112
0.65757102 -0.26521444 -0.0087244092
0.65838194 -0.26362735 -0.0087552061
0.6591928 -0.26204026 -0.008786004
0.66000372 -0.26045316 -0.008816801
0.66081464 -0.25886607 -0.0088475989
0.6616255 -0.25727901 -0.0088783959
0.66243643 -0.25569192 -0.0089091938
0.66324735 -0.25410482 -0.0089399917
0.66430312 -0.25251538 -0.0079940977
0.66560119 -0.25092888 -0.006071351
0.66640943 -0.24934703 -0.0061020469
0.66721761 -0.2477652 -0.0061327424
0.66802585 -0.24618335 -0.0061634383
0.66883409 -0.2446015 -0.0061941338
0.66964227 -0.24301967 -0.0062248292
0.67068917 -0.24144773 -0.0052785957
0.67173427 -0.23987931 -0.0043322938
0.67254066 -0.23830096 -0.0043629217
0.67429101 -0.23678328 -0.00048536606
0.67579913 -0.23526268 0.0024153956
0.67730188 -0.23375258 0.0053163036
0.67833269 -0.23221214 0.0062632062
0.67936164 -0.23067521 0.0072101196
0.67728144 -0.2237751 -0.01538902
0.67855358 -0.22223935 -0.013465347
0.64511865 -0.31756604 0.04183903
0.6453225 -0.31622162 0.039858844
0.64552987 -0.31487018 0.037878465
0.64657772 -0.31329215 0.038824894
0.64067221 -0.31350422 0.015379552
0.64035302 -0.31223798 0.011446727
0.6403172 -0.31088978 0.0084894206
0.64083755 -0.30939865 0.0074834367
0.64135963 -0.30790401 0.0064773266
0.64160997 -0.30646861 0.0044953753
0.64186382 -0.3050262 0.0025132303
0.64239311 -0.30351758 0.0015069064
0.64292413 -0.30200544 0.00050051534
0.643457 -0.30048981 -0.00050594419
0.64372247 -0.29902467 -0.0024885309
0.64425981 -0.29750028 -0.0034951598
0.6450662 -0.29592195 -0.0035257875
0.64560622 -0.29439232 -0.0045325188
0.64641356 -0.29281223 -0.0045631803
0.64695621 -0.29127735 -0.0055700126
0.64776444 -0.28969553 -0.0056007081
0.64857262 -0.28811368 -0.005631404
0.64938086 -0.28653184 -0.0056620995
0.6501891 -0.28494999 -0.0056927954
0.65099728 -0.28336814 -0.0057234908
0.65180552 -0.28178629 -0.0057541863
0.65261376 -0.28020447 -0.0057848822
0.65264946 -0.27871627 -0.0087449644
0.65423018 -0.27704078 -0.0058462732
0.65503836 -0.27545893 -0.0058769691
0.6558466 -0.27387708 -0.0059076645
0.65665483 -0.27229527 -0.00593836
0.65695697 -0.27075836 -0.0079223393
0.65776694 -0.26917303 -0.0079531027
0.65857697 -0.26758766 -0.0079838661
0.65938699 -0.26600233 -0.0080146296
0.66044647 -0.26440153 -0.007068587
0.66075844 -0.26284537 -0.0090529397
0.66156936 -0.26125827 -0.0090837367
0.66238022 -0.25967118 -0.0091145346
0.66319114 -0.25808409 -0.0091453316
0.66473699 -0.25647682 -0.0062453165
0.66554517 -0.254895 -0.0062760119
0.6663534 -0.25331315 -0.0063067079
0.66716164 -0.25173131 -0.0063374033
0.66796982 -0.25014946 -0.0063680988
0.66877806 -0.24856763 -0.0063987947
0.6695863 -0.24698579 -0.0064294902
0.67039448 -0.24540395 -0.0064601861
0.67120272 -0.2438221 -0.0064908816
0.67224789 -0.24224928 -0.0055443537
0.67329121 -0.24067996 -0.0045977575
0.67456794 -0.23912668 -0.0026737435
0.67607534 -0.23759466 0.00022767288
0.67734402 -0.23605713 0.0021519924
0.67884159 -0.23454435 0.0050537828
0.68010223 -0.23302256 0.006978408
0.68998533 -0.22597097 0.032245126
0.67944747 -0.22295792 -0.016666353
0.64715606 -0.31816715 0.043538805
0.64708251 -0.31690562 0.040582187
0.64757061 -0.31548187 0.039577197
0.64806044 -0.31405461 0.038572084
0.64634144 -0.31320271 0.029759252
0.64105779 -0.31323713 0.0082577085
0.64185345 -0.31167978 0.008227488
0.64210188 -0.31025663 0.0062450939
0.64262658 -0.30876115 0.0052387142
0.64288127 -0.30732578 0.0032561405
0.64368141 -0.3057597 0.0032257503
0.64394146 -0.30431378 0.0012429145
0.64474338 -0.30274421 0.0012124564
0.6450088 -0.30128783 -0.00077052478
0.64581251 -0.29971474 -0.00080105051
0.64608324 -0.29824784 -0.0027842938
0.64662319 -0.29672259 -0.003791251
0.64742965 -0.29514426 -0.0038218787
0.64823604 -0.29356593 -0.0038525064
0.64877957 -0.29203367 -0.0048595998
0.64958686 -0.29045358 -0.0048902612
0.65013307 -0.28891611 -0.0058974558
0.65094131 -0.28733426 -0.0059281518
0.65174949 -0.28575242 -0.0059588472
0.65255773 -0.28417057 -0.0059895432
0.65336591 -0.28258875 -0.0060202386
0.65417415 -0.2810069 -0.0060509341
0.6544708 -0.27948928 -0.0080351625
0.65579057 -0.27784321 -0.0061123255
0.65659881 -0.27626139 -0.0061430209
0.65740705 -0.27467954 -0.0061737169
0.65821522 -0.27309769 -0.0062044123
0.65902346 -0.27151585 -0.0062351078
0.65983164 -0.269934 -0.0062658037
0.66063988 -0.26835215 -0.0062964992
0.66144812 -0.26677033 -0.0063271951
0.66200858 -0.26520485 -0.0073349336
0.66257083 -0.26363587 -0.0083427979
0.66338086 -0.26205051 -0.0083735613
0.66419089 -0.26046517 -0.0084043248
0.66500086 -0.25887984 -0.0084350882
0.66629738 -0.25727928 -0.0065113688
0.66710562 -0.25569743 -0.0065420642
0.66791385 -0.25411558 -0.0065727597
0.66872203 -0.25253376 -0.0066034556
0.66953027 -0.25095192 -0.0066341511
0.67033845 -0.24937007 -0.0066648466
0.67114669 -0.24778822 -0.0066955425
0.67195493 -0.24620637 -0.0067262379
0.6729992 -0.24463092 -0.0057794498
0.67404175 -0.24305896 -0.0048325933
0.67531681 -0.24150041 -0.0029080589
0.67635489 -0.2399372 -0.0019610331
0.67785621 -0.23840427 0.00094130059
0.67888892 -0.23685157 0.001888589
0.6803813 -0.23533614 0.0047912621
0.68439656 -0.23403622 0.018449252
0.68020797 -0.22536857 -0.016904313
0.64890838 -0.31884497 0.044263583
0.64939368 -0.31743085 0.04325847
0.64932805 -0.31616673 0.040300865
0.65009421 -0.31466714 0.040271766
0.64259404 -0.31402713 0.0079957768
0.64338976 -0.31246978 0.0079655563
0.64364159 -0.31104842 0.0059825736
0.64416802 -0.30955383 0.0049758996
0.64442617 -0.30812022 0.0029927371
0.6452263 -0.30655414 0.0029623471
0.64602649 -0.30498803 0.0029319569
0.64629173 -0.30354041 0.00094846444
0.64682716 -0.30202833 -5.8549736e-05
0.64736432 -0.30051273 -0.001065631
0.64816809 -0.29893962 -0.001096157
0.64844406 -0.29747102 -0.003080057
0.64898658 -0.29594493 -0.0040873419
0.64979303 -0.2943666 -0.0041179699
0.65059942 -0.29278824 -0.0041485974
0.65140587 -0.29120991 -0.0041792253
0.65195292 -0.28967506 -0.0051866807
0.6525017 -0.28813669 -0.0061942041
0.65330994 -0.28655487 -0.0062248996
0.65411812 -0.28497303 -0.006255595
0.65492636 -0.28339118 -0.0062862909
0.6557346 -0.28180933 -0.0063169864
0.65654278 -0.28022748 -0.0063476819
0.65735102 -0.27864566 -0.0063783778
0.6581592 -0.27706382 -0.0064090732
0.65896744 -0.27548197 -0.0064397687
0.65977567 -0.27390012 -0.0064704646
0.66058385 -0.27231827 -0.0065011601
0.66139209 -0.27073646 -0.0065318556
0.66220033 -0.26915461 -0.0065625515
0.66300851 -0.26757276 -0.0065932469
0.66381675 -0.26599091 -0.0066239429
0.66462493 -0.26440907 -0.0066546383
0.66543317 -0.26282722 -0.0066853338
0.66624141 -0.2612454 -0.0067160297
0.66704959 -0.25966355 -0.0067467252
0.66785783 -0.2580817 -0.0067774211
0.66866606 -0.25649986 -0.0068081166
0.66947424 -0.25491804 -0.006838812
0.67028248 -0.25333619 -0.0068695075
0.67109066 -0.25175434 -0.0069002034
0.67213595 -0.25017276 -0.0059532225
0.67317945 -0.24859466 -0.0050061736
0.6739859 -0.24701631 -0.0050368016
0.67479229 -0.24543798 -0.005067429
0.67606568 -0.24387413 -0.0031423746
0.67710292 -0.24230829 -0.0021950877
0.67837006 -0.24075671 -0.00026985304
0.67963362 -0.23921211 0.0016555757
0.68043381 -0.23764601 0.0016251857
0.681692 -0.23611192 0.0035507597
0.68245661 -0.22625938 -0.014238751
0.65031666 -0.31834766 0.041054189
0.65080732 -0.31692743 0.040048648
0.65157354 -0.31542784 0.040019546
0.64467424 -0.31467238 0.0096870018
0.64519709 -0.31318918 0.0086802365
0.64572167 -0.31170246 0.0076734046
0.6462481 -0.31021222 0.0066665034
0.64623946 -0.30884928 0.0037060478
0.64677119 -0.30734858 0.002698943
0.64757138 -0.3057825 0.002668553
0.64837152 -0.30421638 0.002638163
0.648642 -0.30276707 0.00065401476
0.64944398 -0.30119747 0.00062355673
0.64998293 -0.29968274 -0.00038381974
0.6505236 -0.29816455 -0.0013912633
0.65080482 -0.29669422 -0.0033758199
0.65135002 -0.29516724 -0.0043834341
0.65215641 -0.29358891 -0.0044140616
0.65296286 -0.29201058 -0.004444689
