# .PCD v0.7 - Point Cloud Data file format
VERSION 0.7
FIELDS x y z
SIZE 4 4 4
TYPE F F F
COUNT 1 1 1
WIDTH 1278
HEIGHT 1
VIEWPOINT 0 0 0 1 0 0 0
POINTS 1278
DATA ascii
0.57506281 -0.13218243 0.019305691
0.57448334 -0.13007751 0.015455036
0.57528973 -0.12849917 0.015424409
0.57540858 -0.12664704 0.013483591
0.57553101 -0.12478791 0.011542582
0.57599902 -0.12306218 0.010556657
0.57612765 -0.12119079 0.0086154677
0.57660013 -0.11945631 0.007629314
0.57673508 -0.11757268 0.0056878873
0.57653511 -0.11553466 0.0027909686
0.57701564 -0.11378442 0.001804568
0.57716131 -0.1118798 -0.00013726814
0.57764626 -0.11012081 -0.0011238952
0.57846791 -0.10851272 -0.0011551002
0.57928956 -0.10690463 -0.0011863051
0.58011115 -0.10529654 -0.0012175101
0.58060062 -0.10352882 -0.0022042524
0.58109188 -0.10175759 -0.0031910606
0.58191532 -0.100146 -0.0032223335
0.5827387 -0.098534413 -0.0032536061
0.58356214 -0.096922822 -0.003284879
0.58438551 -0.095311232 -0.0033161519
0.58520895 -0.093699642 -0.0033474248
0.58603239 -0.092088051 -0.0033786977
0.58685577 -0.090476468 -0.0034099706
0.58767921 -0.088864878 -0.0034412434
0.58850259 -0.087253287 -0.0034725163
0.58932602 -0.085641697 -0.0035037892
0.59014946 -0.084030107 -0.0035350621
0.59097284 -0.082418524 -0.003566335
0.59211594 -0.080991074 -0.0026415973
0.59261972 -0.079195343 -0.0036288807
0.59376097 -0.077771395 -0.0027040751
0.59490043 -0.076350935 -0.0017791993
0.59572208 -0.074742846 -0.0018104044
0.59654373 -0.073134758 -0.0018416092
0.59736532 -0.071526669 -0.0018728143
0.59850037 -0.070114978 -0.0009477142
0.59994608 -0.068904914 0.00093368144
0.60107666 -0.067501955 0.0018588945
0.60282689 -0.06650579 0.0046969345
0.60395205 -0.065113336 0.0056223515
0.60538441 -0.063929528 0.0075043133
0.60712117 -0.062959597 0.010342804
0.60885262 -0.06200017 0.013181557
0.61057866 -0.061051246 0.016020514
0.61199403 -0.059900668 0.017903063
0.61371022 -0.058970992 0.020742394
0.61481398 -0.057620537 0.021668626
0.61652124 -0.056708355 0.024508296
0.61792141 -0.05558753 0.026391421
0.61991972 -0.05491548 0.03018819
0.62161094 -0.054034788 0.033028413
0.62269855 -0.052715834 0.033955313
0.62408262 -0.051626507 0.035839051
0.62576044 -0.050772071 0.038679842
0.62535793 -0.048320685 0.034822464
0.57696009 -0.14599361 0.035490911
0.57774776 -0.14445201 0.035460997
0.57818615 -0.1427884 0.034475908
0.57862639 -0.1411213 0.033490807
0.57802606 -0.13907416 0.029640028
0.57708639 -0.13688579 0.024833757
0.57684696 -0.13493793 0.021937711
0.57661289 -0.13297956 0.019041404
0.57604027 -0.13087818 0.015189572
0.57650375 -0.12916557 0.014203589
0.57628489 -0.12717746 0.011306706
0.57641256 -0.1253166 0.0093650967
0.57688403 -0.12358826 0.0083788084
0.57701796 -0.12171515 0.0064369058
0.5778324 -0.12012106 0.0064059724
0.5779717 -0.11823747 0.0044639222
0.57777786 -0.11620035 0.0015660872
0.57792515 -0.114301 -0.00037626855
0.57841098 -0.11254466 -0.0013631588
0.57923263 -0.11093657 -0.0013943637
0.57972109 -0.10917497 -0.0023812968
0.58054364 -0.10756513 -0.0024125357
0.5807035 -0.10564129 -0.0043553668
0.58152777 -0.10402795 -0.0043866737
0.5823521 -0.10241462 -0.0044179806
0.58317643 -0.10080127 -0.0044492874
0.58367294 -0.099023931 -0.0054365261
0.58515191 -0.097740345 -0.0035559351
0.58597529 -0.096128762 -0.003587208
0.58679873 -0.094517171 -0.0036184809
0.58762217 -0.092905581 -0.0036497538
0.58844554 -0.091293991 -0.0036810266
0.58926898 -0.089682408 -0.0037122995
0.59009236 -0.088070817 -0.0037435724
0.5909158 -0.086459227 -0.0037748453
0.59173924 -0.084847637 -0.0038061182
0.59256262 -0.083236046 -0.003837391
0.59338605 -0.081624463 -0.0038686639
0.59420943 -0.080012873 -0.0038999368
0.59503287 -0.078401282 -0.0039312094
0.59585631 -0.076789692 -0.0039624823
0.59667969 -0.075178102 -0.0039937552
0.59750313 -0.073566511 -0.0040250281
0.59895164 -0.072342426 -0.0021432827
0.59977329 -0.070734337 -0.0021744876
0.60090572 -0.069323502 -0.0012490567
0.60234618 -0.06811516 0.0006329944
0.60378313 -0.066913828 0.002515238
0.60552454 -0.065921985 0.0053542396
0.60633904 -0.064327888 0.0053233062
0.60807246 -0.063351803 0.0081626698
0.60949504 -0.062178463 0.010045401
0.61121863 -0.061221626 0.012885137
0.61293685 -0.060275286 0.01572508
0.61464965 -0.059339434 0.018565167
0.61605531 -0.05819935 0.020448599
0.61775827 -0.057282746 0.02328906
0.61945593 -0.056376647 0.026129786
0.62084901 -0.055261042 0.028013635
0.6228351 -0.054595951 0.031811785
0.6242193 -0.053497855 0.033696029
0.62559986 -0.052406747 0.035580356
0.62697691 -0.051322658 0.037464876
0.62658226 -0.048873071 0.033606287
0.57848084 -0.14677563 0.035231628
0.57926846 -0.14523403 0.035201713
0.57936114 -0.14345019 0.033260915
0.58015054 -0.1419051 0.033230934
0.57921147 -0.13973689 0.028423499
0.5786261 -0.13767757 0.024571236
0.57839185 -0.13573237 0.021674307
0.57781994 -0.13364679 0.017821537
0.57759726 -0.13167883 0.01492411
0.57772124 -0.12983376 0.012982183
0.57784873 -0.12798168 0.011040064
0.57797986 -0.12612259 0.0090978676
0.57811451 -0.12425651 0.0071554766
0.57859045 -0.12252381 0.0061687916
0.57873142 -0.12064548 0.0042262217
0.57854003 -0.11861628 0.0013276064
0.57868904 -0.11672221 -0.00061527122
0.57917565 -0.11496849 -0.0016024201
0.5799973 -0.1133604 -0.001633625
0.58048666 -0.11160145 -0.002620819
0.58097774 -0.10983899 -0.0036080789
0.58114016 -0.10791867 -0.0055514658
0.58196539 -0.10630359 -0.0055828067
0.58279055 -0.1046885 -0.0056141475
0.58361578 -0.10307341 -0.0056454879
0.58444095 -0.10145832 -0.0056768288
0.58526617 -0.099843234 -0.0057081697
0.5860914 -0.098228142 -0.0057395105
0.58724082 -0.096779667 -0.0048145563
0.5883885 -0.095334694 -0.0038895346
0.58921188 -0.093723103 -0.0039208075
0.59003532 -0.092111513 -0.0039520804
0.59085876 -0.090499923 -0.0039833533
0.59168214 -0.088888332 -0.0040146261
0.59250557 -0.087276749 -0.004045899
0.59332895 -0.085665159 -0.0040771719
0.59415239 -0.084053569 -0.0041084448
0.59497583 -0.082441986 -0.0041397177
0.59579921 -0.080830388 -0.0041709905
0.59662265 -0.079218805 -0.0042022634
0.59744602 -0.077607214 -0.0042335363
0.59826946 -0.075995624 -0.0042648092
0.5990929 -0.074384034 -0.0042960821
0.60053796 -0.073158175 -0.002413749
0.60135961 -0.071550086 -0.0024449539
0.60249031 -0.070138365 -0.0015192303
0.60392731 -0.068928242 0.00036341048
0.60505354 -0.067525268 0.001289245
0.60617799 -0.066125803 0.0022152064
0.60791153 -0.065136544 0.0050551924
0.60933518 -0.063952684 0.0069383993
0.61045158 -0.062568948 0.0078646094
0.61186892 -0.061397333 0.0097479951
0.61358464 -0.060443081 0.012588719
0.61529499 -0.059499331 0.015429645
0.61699998 -0.058566064 0.018270716
0.61840034 -0.057427701 0.020154806
0.62009549 -0.056513682 0.022996252
0.62208271 -0.055829283 0.026795272
0.62406272 -0.055158883 0.030594565
0.62573999 -0.054279875 0.033436749
0.62711716 -0.05318699 0.035321664
0.62790304 -0.0516489 0.035291817
0.62810296 -0.049655091 0.033347003
0.58060771 -0.14955918 0.03882473
0.58000153 -0.14755765 0.034972344
0.58044249 -0.14589755 0.033986703
0.58088529 -0.14423399 0.033001047
0.58132988 -0.1425669 0.032015324
0.58005631 -0.14027767 0.026250608
0.57913655 -0.13809291 0.021441296
0.57959455 -0.13639958 0.020455007
0.57937169 -0.13444479 0.017556956
0.57881385 -0.13234878 0.013702734
0.57894218 -0.13050371 0.011760186
0.57873541 -0.12851742 0.0088614691
0.57887173 -0.12665661 0.0069185589
0.5793485 -0.12492654 0.005931613
0.57949108 -0.1230535 0.0039885216
0.57963729 -0.12117344 0.0020452375
0.57978702 -0.11928639 0.00010187431
0.57994038 -0.11739233 -0.0018416814
0.58076197 -0.11578424 -0.0018728863
0.58125216 -0.11402793 -0.0028603415
0.58174407 -0.11226811 -0.0038478621
0.58256751 -0.11065652 -0.003879135
0.58273339 -0.10873798 -0.0058231093
0.58290279 -0.10681242 -0.0077672764
0.58405679 -0.10535081 -0.0068422672
0.58488286 -0.10373397 -0.0068736421
0.58570898 -0.10211714 -0.006905017
0.58685941 -0.10066253 -0.0059798132
0.58768457 -0.099047445 -0.006011154
0.58883232 -0.097598083 -0.0050859074
0.58965665 -0.095984749 -0.0051172143
0.59080166 -0.094540633 -0.0041918634
0.59162509 -0.092929043 -0.0042231367
0.59212959 -0.091144733 -0.0052111349
0.59327191 -0.089705862 -0.004285682
0.59409535 -0.088094279 -0.0043169549
0.59460247 -0.086304717 -0.0053050551
0.5954268 -0.084691375 -0.0053363619
0.59625113 -0.083078034 -0.0053676688
0.5970754 -0.0814647 -0.0053989757
0.59789973 -0.079851359 -0.0054302826
0.59872401 -0.078238018 -0.0054615894
0.59954834 -0.076624684 -0.0054928963
0.60068268 -0.075201564 -0.0045671379
0.60150605 -0.073589973 -0.0045984108
0.60263771 -0.072172113 -0.003672553
0.60376751 -0.070757747 -0.0027466253
0.60489559 -0.06934689 -0.0018205727
0.60602188 -0.067939527 -0.00089451123
0.60775566 -0.066937111 0.0019462123
0.60948408 -0.065945193 0.0047870805
0.61090428 -0.06475956 0.006670875
0.61201888 -0.063374937 0.0075973799
0.61373389 -0.062409278 0.010438815
0.61514336 -0.061244633 0.012322959
0.61624992 -0.05987576 0.01324977
0.61795151 -0.058936335 0.016091716
0.61994523 -0.058222145 0.019891404
0.6216352 -0.057305466 0.022733731
0.6233198 -0.056399297 0.025576323
0.62499905 -0.055503625 0.028419118
0.62696683 -0.054840159 0.032219734
0.62804842 -0.053520303 0.033147551
0.62883604 -0.051978707 0.033117633
0.62816751 -0.049302246 0.02829878
0.58212149 -0.15033765 0.038566623
0.58221394 -0.14857136 0.036624923
0.58196497 -0.14668047 0.033727124
0.5820654 -0.14489844 0.031785175
0.58182633 -0.14298829 0.028887
0.58056581 -0.14069913 0.023120416
0.57999873 -0.13863815 0.019265631
0.58011979 -0.13681589 0.0173229
0.57990479 -0.1348585 0.014423808
0.58003384 -0.13302048 0.012480774
0.58016652 -0.13117544 0.010537545
0.57962894 -0.12905672 0.0066816392
0.57943451 -0.1270591 0.0037818225
0.5802508 -0.12546152 0.0037508213
0.57939601 -0.12317095 -0.0010621033
0.58021677 -0.12156461 -0.0010932742
0.58037263 -0.11967409 -0.0030373859
0.58119518 -0.11806425 -0.0030686248
0.58168703 -0.11630882 -0.0040563722
0.58251047 -0.11469723 -0.0040876451
0.58300501 -0.11293654 -0.0050754948
0.58382934 -0.11132321 -0.0051068016
0.58367246 -0.10925209 -0.008008101
0.58417332 -0.10747916 -0.0089961877
0.58467591 -0.10570273 -0.0099843433
0.58550471 -0.10408064 -0.01001582
0.58665699 -0.10261814 -0.0090905158
0.58780742 -0.10115915 -0.0081651444
0.5892778 -0.09986674 -0.0062827975
0.59042382 -0.0984165 -0.0053572562
0.5909282 -0.096636564 -0.0063454793
0.59207243 -0.095189817 -0.0054198699
0.59321487 -0.093746573 -0.0044941925
0.59372103 -0.091963142 -0.0054824832
0.59486169 -0.090523392 -0.0045567383
0.59568512 -0.088911802 -0.0045880112
0.59587944 -0.086946033 -0.0065335236
0.59670466 -0.085330948 -0.0065648644
0.59752983 -0.083715856 -0.0065962053
0.59835505 -0.082100771 -0.0066275462
0.59918022 -0.080485687 -0.006658887
0.60000545 -0.078870595 -0.0066902274
0.60083067 -0.077255502 -0.0067215683
0.60196412 -0.075829752 -0.0057955515
0.60309583 -0.074407503 -0.0048694671
0.60391927 -0.072795913 -0.0049007395
0.60504824 -0.071378917 -0.0039745532
0.60617548 -0.069965407 -0.0030482966
0.60730094 -0.068555415 -0.0021219172
0.60872751 -0.067348741 -0.00023796351
0.61075455 -0.066552259 0.0035613736
0.61217219 -0.065363087 0.0054456647
0.61358625 -0.064180925 0.0073301508
0.61499667 -0.063005753 0.0092147132
0.61640358 -0.061837595 0.011099471
0.61780691 -0.060676422 0.012984306
0.61950332 -0.059734337 0.015827134
0.6208986 -0.058588915 0.017712276
0.62317491 -0.058097251 0.022471212
0.62456036 -0.056971084 0.024356784
0.62652838 -0.056290086 0.028158363
0.62819707 -0.055402238 0.031002186
0.62956911 -0.054302324 0.032888267
0.63035679 -0.052760728 0.032858353
0.58363533 -0.15111612 0.03830852
0.58407527 -0.14946656 0.037322454
0.58348739 -0.14746338 0.033467546
0.58359134 -0.14568312 0.031525008
0.58199173 -0.14329483 0.024800638
0.58108562 -0.14112593 0.019988459
0.58086783 -0.13918698 0.017088845
0.58167154 -0.13761388 0.01705832
0.58146173 -0.13565916 0.014158346
0.58159429 -0.1338229 0.012214722
0.58139431 -0.13184895 0.0093143741
0.58019423 -0.12946711 0.0035441245
0.58034194 -0.1276011 0.0015998669
0.58082664 -0.12586406 0.00061216392
0.58064812 -0.1238481 -0.0022890014
0.58146971 -0.12224001 -0.0023202063
0.58162999 -0.12034952 -0.0042648828
0.58278322 -0.11888088 -0.0033393858
0.58294791 -0.11698164 -0.0052842321
0.58344424 -0.11522184 -0.0062723765
0.5842694 -0.11360676 -0.0063037169
0.58509463 -0.11199167 -0.0063350578
0.58494383 -0.10992146 -0.0092372736
0.58544725 -0.10814767 -0.01022569
0.58595252 -0.10637038 -0.011214173
0.58710486 -0.1049035 -0.010288643
0.58825535 -0.10344011 -0.0093630441
0.58908325 -0.10181978 -0.0093944864
0.59087104 -0.10068605 -0.0065544434
0.59169626 -0.099070959 -0.0065857843
0.59252143 -0.097455874 -0.0066171247
0.59366393 -0.096008234 -0.0056912205
0.59480464 -0.094564095 -0.0047652484
0.59562802 -0.092952512 -0.0047965213
0.59613687 -0.091168217 -0.0057851411
0.59696114 -0.089554884 -0.005816448
0.59747267 -0.087765343 -0.0068051694
0.59829789 -0.086150251 -0.0068365103
0.59881204 -0.084355459 -0.0078253904
0.59932798 -0.082557164 -0.0088142818
0.600155 -0.080938578 -0.0088456906
0.60098201 -0.079319991 -0.0088770995
0.60242391 -0.078074813 -0.0069932141
0.60324907 -0.076459721 -0.007024555
0.6046856 -0.075225033 -0.005140523
0.60550904 -0.073613442 -0.0051717958
0.60663629 -0.072195552 -0.0042453143
0.6077618 -0.070781156 -0.003318765
0.6091876 -0.069567472 -0.0014342666
0.61000746 -0.067962885 -0.0014654036
0.61172819 -0.066960394 0.0013771865
0.61344355 -0.065968394 0.0042199236
0.61485505 -0.064782716 0.0061049629
0.61596537 -0.063398071 0.0070320899
0.61737055 -0.062224623 0.0089173103
0.61906809 -0.061267633 0.011760783
0.6207602 -0.060321141 0.01460446
0.62244695 -0.059385136 0.017448284
0.62412834 -0.058459643 0.020292368
0.62580436 -0.057544649 0.023136655
0.62747502 -0.056640141 0.025981091
0.62914032 -0.055746146 0.028825786
0.63080025 -0.054862633 0.031670626
0.58514917 -0.15189458 0.038050413
0.58593321 -0.15035999 0.038020633
0.58569282 -0.14847793 0.035121132
0.58511722 -0.1464678 0.031264842
0.58318996 -0.14396639 0.023581732
0.58195466 -0.14167914 0.017811447
0.58241957 -0.13998497 0.016824266
0.58322334 -0.13841188 0.016793741
0.58268261 -0.1363335 0.012936125
0.58281946 -0.13449728 0.010991877
0.58195692 -0.13226458 0.0061769024
0.58110332 -0.1300144 0.0013616447
0.5815888 -0.12827998 0.00037368311
0.58240777 -0.12667716 0.00034258002
0.58223444 -0.12466385 -0.0025594677
0.58305603 -0.12305576 -0.0025906726
0.58321977 -0.12116704 -0.0045359363
0.58404315 -0.11955545 -0.0045672092
0.58486658 -0.11794386 -0.004598482
0.58536369 -0.11618671 -0.0055868872
0.58586264 -0.11442605 -0.0065753604
0.58571434 -0.11236376 -0.0094783567
0.58654219 -0.11074343 -0.0095097991
0.5867247 -0.10881796 -0.011455779
0.5875544 -0.10719413 -0.011487289
0.58870494 -0.10572635 -0.010561463
0.58985376 -0.10426207 -0.0096355705
0.59068161 -0.10264173 -0.0096670128
0.59246427 -0.10150535 -0.0068260869
0.59328943 -0.099890262 -0.0068574278
0.59411466 -0.09827517 -0.0068887682
0.59525543 -0.096826643 -0.0059625693
0.59639436 -0.095381618 -0.0050363024
0.59690404 -0.093599968 -0.006025183
0.59741551 -0.091814816 -0.0070141316
0.59761667 -0.089852594 -0.0089608785
0.59844369 -0.088234 -0.0089922864
0.5992707 -0.086615413 -0.0090236953
0.59978837 -0.084818013 -0.010012882
0.60061628 -0.083197676 -0.010044324
0.60144413 -0.081577338 -0.010075768
0.60227203 -0.079957001 -0.01010721
0.60340565 -0.078522474 -0.0091807386
0.60484231 -0.077279024 -0.0072961985
0.60627538 -0.076042555 -0.0054115769
0.60709876 -0.074430965 -0.0054428494
0.60822433 -0.073012188 -0.0045160754
0.60934812 -0.071596906 -0.0035892313
0.61047012 -0.07018514 -0.0026622624
0.61188978 -0.06897492 -0.00077713135
0.61330587 -0.06777171 0.0011081902
0.61471838 -0.06657549 0.0029935928
0.61612731 -0.065386273 0.0048791291
0.61723679 -0.063998997 0.0058065737
0.61834449 -0.062615216 0.0067340289
0.61974448 -0.061443496 0.0086199045
0.62172729 -0.060699396 0.012422751
0.62370294 -0.059969306 0.016225869
0.62567151 -0.059253197 0.02002926
0.62734234 -0.058335543 0.02287443
0.6287182 -0.057211068 0.024761222
0.63009048 -0.056093588 0.026648153
0.63174701 -0.055203926 0.029493866
0.58666295 -0.15267305 0.037792306
0.58744705 -0.15113845 0.037762526
0.58755159 -0.14937399 0.035818994
0.58732086 -0.14748585 0.032918442
0.58506769 -0.14487661 0.024276186
0.58350474 -0.14247625 0.017547162
0.58363521 -0.14066103 0.0156027
0.58376926 -0.13883883 0.013658047
0.58357251 -0.1368842 0.01075626
0.58338112 -0.13491905 0.0078542149
0.58319509 -0.13294342 0.0049519637
0.58301443 -0.13095728 0.0020495681
0.58316994 -0.12909308 0.00010409921
0.5839889 -0.12749024 7.2996125e-05
0.58382076 -0.12547961 -0.002829934
0.58431423 -0.12373384 -0.0038184302
0.58480954 -0.12198457 -0.0048069926
0.58563292 -0.12037298 -0.0048382655
0.58613092 -0.11861846 -0.0058269291
0.58663064 -0.11686045 -0.0068156635
0.58648485 -0.11480607 -0.0097194426
0.58731276 -0.11318573 -0.009750885
0.58814061 -0.11156539 -0.0097823273
0.58832657 -0.1096417 -0.011728894
0.58915621 -0.10801786 -0.011760404
0.58998591 -0.10639402 -0.011791916
0.59081554 -0.10477018 -0.011823426
0.59228003 -0.1034637 -0.0099395411
0.59310794 -0.10184336 -0.0099709835
0.59425145 -0.1003852 -0.0090446593
0.59570789 -0.099094473 -0.0071604121
0.59653306 -0.097479388 -0.0071917525
0.59735829 -0.095864296 -0.0072230934
0.59818351 -0.094249204 -0.0072544343
0.59838641 -0.092292257 -0.0092017027
0.59890312 -0.090500996 -0.010191082
0.59973103 -0.088880658 -0.010222524
0.60055888 -0.087260321 -0.010253968
0.60107923 -0.085462056 -0.01124348
0.60190797 -0.083839968 -0.011274957
0.60304254 -0.082399309 -0.010348295
0.60387045 -0.080778971 -0.010379738
0.6046983 -0.079158634 -0.010411181
0.60643554 -0.078098319 -0.007567842
0.6072607 -0.076483235 -0.0075991829
0.60838723 -0.075058319 -0.0066722133
0.60951197 -0.073636904 -0.0057451786
0.61093444 -0.072412655 -0.0038596976
0.61175609 -0.070804566 -0.0038909025
0.61347091 -0.069788001 -0.0010467152
0.61488354 -0.068583019 0.00083919597
0.61599666 -0.067184359 0.0017666724
0.61769807 -0.066194028 0.0046113124
0.61880583 -0.064805873 0.0055390494
0.61961854 -0.063215286 0.005508184
0.62101597 -0.062040035 0.0073946156
0.62299281 -0.06129064 0.011198604
0.62525302 -0.060766414 0.015961584
0.62721467 -0.060046762 0.01976615
0.62888032 -0.059126437 0.022612205
0.63025272 -0.058000181 0.024499588
0.63162154 -0.056880932 0.026387105
0.63327295 -0.05598861 0.029233702
0.58817679 -0.15345152 0.0375342
0.58896089 -0.15191692 0.037504423
0.58906889 -0.15015423 0.035560299
0.58951759 -0.14850035 0.034573276
0.58660567 -0.14566751 0.024013959
0.58438408 -0.14303476 0.015368385
0.58418536 -0.14109679 0.012465931
0.58499271 -0.1395167 0.01243527
0.58480197 -0.13756296 0.0095325094
0.58461666 -0.13559875 0.0066296048
0.58443671 -0.13362402 0.0037264377
0.58426213 -0.1316388 0.00082306669
0.58442199 -0.12977463 -0.0011229692
0.58458543 -0.12790345 -0.0030691952
0.58507973 -0.12616031 -0.0040579503
0.58557588 -0.12441368 -0.0050467756
0.58639926 -0.12280209 -0.0050780484
0.5872227 -0.12119051 -0.0051093213
0.58804613 -0.11957892 -0.0051405942
0.58757818 -0.11739216 -0.0090028057
0.58808327 -0.11562803 -0.0099919681
0.58891112 -0.11400769 -0.01002341
0.58909869 -0.11208927 -0.011970497
0.58992839 -0.11046543 -0.012002008
0.59075809 -0.1088416 -0.012033518
0.59158772 -0.10721776 -0.012065029
0.59241742 -0.10559392 -0.012096539
0.59387845 -0.10428566 -0.010212067
0.5947063 -0.10266533 -0.010243509
0.59553421 -0.10104499 -0.010274952
0.5966751 -0.099587686 -0.0093483012
0.59812629 -0.098298684 -0.0074633961
0.59832907 -0.096350513 -0.0094111189
0.59884578 -0.094563633 -0.010400723
0.59967363 -0.092943296 -0.010432165
0.60050154 -0.091322958 -0.010463607
0.60132939 -0.089702621 -0.010495051
0.60215729 -0.088082284 -0.010526493
0.60267931 -0.086284906 -0.011516301
0.60350811 -0.084662817 -0.011547778
0.60433692 -0.083040729 -0.011579254
0.60546881 -0.081600934 -0.010652264
0.60720354 -0.080532715 -0.0078081447
0.60802877 -0.078917623 -0.007839486
0.60885394 -0.07730253 -0.0078708259
0.60997874 -0.075876735 -0.0069435644
0.61110175 -0.074454427 -0.0060162344
0.61222297 -0.07303562 -0.0050888346
0.61334234 -0.071620315 -0.0041613691
0.61505204 -0.070601091 -0.0013162992
0.61587101 -0.068998255 -0.0013474022
0.61757261 -0.067994781 0.0014979709
0.61897552 -0.066800259 0.0033846528
0.62008244 -0.065409452 0.004312594
0.62118757 -0.064022154 0.0052406616
0.62258154 -0.062845133 0.0071276808
0.62426174 -0.061883647 0.0099738715
0.62593651 -0.060932655 0.012820208
0.62818187 -0.06041624 0.017584894
0.62984419 -0.059489761 0.020431764
0.63178724 -0.058789305 0.024237949
0.63315266 -0.05766828 0.026126055
0.63479882 -0.05677329 0.028973535
0.63247073 -0.05279782 0.018392045
0.58935249 -0.15412033 0.036318667
0.59013748 -0.15258399 0.036288854
0.59024984 -0.15082133 0.034344167
0.59137201 -0.14939639 0.03527176
0.58780909 -0.14634174 0.02279417
0.58560395 -0.14371523 0.014145914
0.58541131 -0.14177817 0.0112426
0.58621955 -0.14019634 0.011211905
0.58603489 -0.13824353 0.008308229
0.58585566 -0.13628021 0.005404349
0.5856818 -0.1343064 0.0025003217
0.58551329 -0.13232209 -0.00040396553
0.5856775 -0.13045794 -0.0023506228
0.58617175 -0.1287192 -0.0033396615
0.58666778 -0.12697695 -0.0043287114
0.58716565 -0.12523121 -0.0053178295
0.58798903 -0.12361962 -0.0053491024
0.58881247 -0.12200803 -0.0053803753
0.58931386 -0.12025528 -0.0063696289
0.58917487 -0.11821324 -0.0092750387
0.58968163 -0.11644999 -0.010264494
0.59050953 -0.11482965 -0.010295937
0.59070057 -0.11291301 -0.012243613
0.59153026 -0.11128917 -0.012275123
0.5923599 -0.10966533 -0.012306633
0.5931896 -0.1080415 -0.012338145
0.59401923 -0.10641766 -0.012369655
0.59484893 -0.10479382 -0.012401165
0.59630471 -0.10348728 -0.010516035
0.59713262 -0.10186695 -0.010547478
0.59796047 -0.10024661 -0.01057892
0.59878838 -0.098626271 -0.010610363
0.59961629 -0.097005934 -0.010641806
0.60044414 -0.095385596 -0.010673248
0.60065663 -0.093426958 -0.012621739
0.60148633 -0.091803119 -0.01265325
0.60231596 -0.090179287 -0.012684761
0.60314566 -0.088555448 -0.012716271
0.60397536 -0.086931609 -0.012747781
0.60510826 -0.085485667 -0.011820599
0.605937 -0.083863579 -0.011852074
0.60706723 -0.08242289 -0.01092479
0.60879678 -0.08135201 -0.0080797886
0.60962194 -0.079736918 -0.0081111295
0.61044717 -0.078121834 -0.0081424704
0.61157024 -0.076695144 -0.0072149131
0.61269152 -0.075271949 -0.0062872884
0.61381102 -0.073852256 -0.0053595956
0.61492866 -0.072436064 -0.0044318349
0.61575031 -0.070827976 -0.0044630403
0.61745214 -0.069811344 -0.0016169861
0.61856359 -0.068407394 -0.0006889879
0.61996484 -0.067207612 0.0011982704
0.62136251 -0.066014811 0.0030856077
0.6224668 -0.064624868 0.0040138774
0.62414718 -0.063650228 0.0068607465
0.62495804 -0.062063135 0.0068299486
0.62749177 -0.06173243 0.012555039
0.6297285 -0.061211571 0.017321197
0.63110024 -0.060069535 0.019209575
0.63303733 -0.059363786 0.023016904
0.63468373 -0.058455624 0.025865007
0.63689005 -0.057994261 0.030632319
0.63852394 -0.057110615 0.033480953
0.63734365 -0.054020997 0.026734252
0.58839673 -0.15590093 0.031301875
0.59053165 -0.15479092 0.035102606
0.59098208 -0.1531423 0.034115061
0.5917688 -0.15160246 0.034085181
0.59188819 -0.14983457 0.032139707
0.58868325 -0.14690199 0.020616049
0.58715922 -0.14451501 0.013880745
0.58697176 -0.14258061 0.010976548
0.58711976 -0.14075673 0.0090299919
0.58694208 -0.13880308 0.0061254217
0.58709812 -0.13696346 0.0041785594
0.58693033 -0.13499056 0.0012736162
0.58676785 -0.13300717 -0.0016315874
0.58693641 -0.13114303 -0.003578925
0.58775806 -0.12953494 -0.0036101302
0.58825582 -0.12779358 -0.0045994725
0.58875543 -0.12604873 -0.0055888854
0.58957881 -0.12443715 -0.0056201583
0.59040225 -0.12282556 -0.0056514312
0.59058511 -0.12093344 -0.0075992555
0.59077156 -0.11903431 -0.0095472699
0.59128004 -0.11727196 -0.010537023
0.59210795 -0.11565162 -0.010568465
0.59261912 -0.11388402 -0.011558319
0.59313208 -0.11211291 -0.012548239
0.59396178 -0.11048908 -0.012579749
0.59479141 -0.10886524 -0.01261126
0.59624738 -0.10754993 -0.010725678
0.59707522 -0.10592959 -0.010757121
0.59790313 -0.10430925 -0.010788564
0.59873098 -0.10268892 -0.010820006
0.59955889 -0.10106858 -0.010851448
0.6003868 -0.099448241 -0.010882892
0.60121465 -0.097827904 -0.010914334
0.60204256 -0.096207567 -0.010945776
0.60256445 -0.094418965 -0.011936039
0.60369831 -0.092966892 -0.011008662
0.60391784 -0.091003023 -0.012957877
0.60474753 -0.089379184 -0.012989387
0.60557717 -0.087755352 -0.013020897
0.60670835 -0.086308524 -0.012093421
0.60753715 -0.084686443 -0.012124898
0.60866565 -0.08324486 -0.011197317
0.61009115 -0.081989042 -0.0093105789
0.61121517 -0.080556229 -0.0083827749
0.61263442 -0.07931266 -0.0064957985
0.61345786 -0.077701069 -0.0065270714
0.6142813 -0.076089479 -0.0065583442
0.615399 -0.074668899 -0.0056303567
0.61651498 -0.073251821 -0.0047023036
0.61733663 -0.071643732 -0.0047335085
0.61903328 -0.070624433 -0.00188657
0.620143 -0.069219604 -0.00095827918
0.62154078 -0.068018042 0.00092956878
0.62293506 -0.066823468 0.0028174936
0.62403756 -0.065432638 0.0037460583
0.62571275 -0.06445533 0.0065938095
0.62652367 -0.062868237 0.006563012
0.6284762 -0.062115189 0.010370671
0.63070607 -0.061586395 0.015138231
0.6326434 -0.0608631 0.018946465
0.63457364 -0.060153797 0.022754971
0.63621479 -0.059242968 0.025603957
0.63841248 -0.058777172 0.030372741
0.64060128 -0.058328882 0.035141923
0.64082706 -0.056352757 0.033192415
0.58958536 -0.1565786 0.030084079
0.59204894 -0.15557116 0.03484391
0.59216732 -0.15381381 0.032898076
0.59295499 -0.15227221 0.032868162
0.59274673 -0.15039122 0.029964013
0.58989537 -0.14758067 0.019394847
0.58871448 -0.14531478 0.013615575
0.58853215 -0.14338304 0.010710496
0.58835524 -0.14144081 0.0078051547
0.58851117 -0.13960996 0.0058578975
0.58834404 -0.13764848 0.002952185
0.58818233 -0.13567649 4.6266465e-05
0.58802593 -0.13369401 -0.0028597969
0.58852273 -0.13195878 -0.0038493914
0.58934438 -0.13035069 -0.0038805963
0.58952177 -0.12847786 -0.0058286684
0.59034514 -0.12686627 -0.0058599412
0.59116858 -0.12525468 -0.0058912141
0.59167254 -0.12350545 -0.0068810214
0.59217834 -0.12175274 -0.0078708986
0.59268588 -0.11999651 -0.0088608991
0.59287846 -0.11809392 -0.010809548
0.59370631 -0.11647358 -0.010840991
0.59453422 -0.11485324 -0.010872434
0.59473395 -0.11293665 -0.012821355
0.59556359 -0.11131281 -0.012852865
0.59670556 -0.10984061 -0.01192557
0.59753436 -0.10821852 -0.011957047
0.59836316 -0.10659643 -0.011988522
0.5991919 -0.10497434 -0.012019999
0.6003294 -0.10351088 -0.011092532
0.60115731 -0.10189054 -0.011123975
0.60198516 -0.1002702 -0.011155417
0.60281307 -0.098649867 -0.01118686
0.60364091 -0.097029522 -0.011218303
0.6041646 -0.095241815 -0.012208859
0.6049934 -0.093619727 -0.012240335
0.60551971 -0.091826767 -0.013230992
0.60665095 -0.09037555 -0.012303289
0.60747969 -0.088753462 -0.012334766
0.60830849 -0.087131374 -0.012366242
0.6091373 -0.085509293 -0.012397719
0.610264 -0.084066823 -0.011469844
0.61138898 -0.082627855 -0.010541903
0.61280841 -0.081375524 -0.0086544184
0.61392891 -0.079945311 -0.0077263056
0.61504763 -0.078518599 -0.0067981277
0.61587107 -0.076907009 -0.0068294005
0.61698705 -0.075485535 -0.0059011178
0.6181013 -0.07406757 -0.0049727699
0.61892295 -0.072459482 -0.0050039748
0.6197446 -0.070851393 -0.0050351797
0.62143332 -0.069834679 -0.0021872569
0.62311673 -0.068828464 0.00066086726
0.62450755 -0.067632116 0.0025493819
0.62532198 -0.066038027 0.0025184485
0.62670743 -0.064852186 0.0044072233
0.62808925 -0.063673332 0.0062960777
0.63003492 -0.062916741 0.010104911
0.63225615 -0.062383503 0.014873946
0.63418657 -0.061656654 0.018683357
0.63610989 -0.060943801 0.02249304
0.63774586 -0.060030319 0.025342908
0.64049339 -0.059992827 0.032033347
0.64211512 -0.059107352 0.034883816
0.64289916 -0.057572756 0.034854036
0.64008838 -0.053157076 0.022341939
0.59177893 -0.15757376 0.031740349
0.59356624 -0.1563514 0.034585215
0.59368801 -0.15459582 0.032638796
0.59447569 -0.15305422 0.032608882
0.5939424 -0.15106365 0.028745491
0.59111089 -0.14826111 0.018173
0.59026968 -0.14611456 0.013350405
0.5900926 -0.14418548 0.010444444
0.58992082 -0.1422459 0.0075382204
0.58942866 -0.14017484 0.0036732692
0.58926857 -0.13821253 0.00076666084
0.58911377 -0.13623971 -0.0021402079
0.58928746 -0.13438262 -0.0040886528
0.59010905 -0.13277453 -0.0041198577
0.5909307 -0.13116644 -0.0041510626
0.59111154 -0.12929538 -0.0060997247
0.59193492 -0.12768379 -0.0061309976
0.59275836 -0.1260722 -0.0061622704
0.59326404 -0.12432387 -0.0071523725
0.59377152 -0.12257204 -0.0081425421
0.59459674 -0.12095695 -0.008173883
0.5951069 -0.11919986 -0.0091642123
0.59593302 -0.11758302 -0.0091955867
0.59613264 -0.11567521 -0.011144961
0.59664816 -0.11390764 -0.012135438
0.5974769 -0.11228555 -0.012166914
0.5983057 -0.11066346 -0.01219839
0.5988248 -0.10888888 -0.013189002
0.5996545 -0.10726504 -0.013220512
0.60048413 -0.1056412 -0.013252023
0.60192782 -0.10433284 -0.01136506
0.60275567 -0.1027125 -0.011396503
0.6032784 -0.10093093 -0.012387251
0.60441148 -0.09947183 -0.011459388
0.60493594 -0.097686753 -0.012450203
0.60546219 -0.095898181 -0.013441087
0.60659349 -0.094442576 -0.012513156
0.60712153 -0.092650503 -0.013504107
0.60825104 -0.0911984 -0.01257611
0.60937876 -0.089749806 -0.011648044
0.61020666 -0.088129468 -0.011679486
0.61073738 -0.086332142 -0.012670539
0.61186242 -0.084888786 -0.011742372
0.61328101 -0.083629422 -0.0098544564
0.61440164 -0.082194827 -0.0089260619
0.61552042 -0.080763727 -0.0079976572
0.61663741 -0.079336122 -0.0070691835
0.61746079 -0.077724531 -0.0071004564
0.6185751 -0.076302171 -0.0061718794
0.61968762 -0.074883319 -0.0052432362
0.62050927 -0.073275231 -0.0052744411
0.62133092 -0.071667142 -0.005305646
0.62272716 -0.070451535 -0.0034168269
0.62411988 -0.06924291 -0.0015279263
0.62579453 -0.06824103 0.0013212184
0.62689453 -0.066846676 0.0022503368
0.62827647 -0.065659054 0.0041397014
0.62965488 -0.064478435 0.006029143
0.63159359 -0.063718289 0.0098391548
0.63380623 -0.063180618 0.014609659
0.63572973 -0.062450215 0.018420247
0.63764614 -0.061733816 0.022231108
0.63955534 -0.061031409 0.02604224
0.64201236 -0.060773958 0.031774361
0.64390552 -0.060103051 0.035586104
0.64468867 -0.058570206 0.035556357
0.64189941 -0.054167826 0.023040466
0.595667 -0.15372664 0.031390928
0.59481299 -0.1516265 0.026567677
0.59265751 -0.14905645 0.017909301
0.59182495 -0.14691433 0.013085238
0.59165305 -0.14498793 0.010178392
0.59148645 -0.14305101 0.0072712856
0.59067714 -0.14086339 0.002446339
0.59052306 -0.13890198 -0.00046124245
0.59101886 -0.13717729 -0.001451198
0.59119511 -0.13532373 -0.0034001418
0.59169537 -0.13359028 -0.004390324
0.59251702 -0.13198219 -0.0044215289
0.59333861 -0.1303741 -0.0044527338
0.59352469 -0.12850131 -0.0064020511
0.59434813 -0.12688972 -0.006433324
0.59517151 -0.12527813 -0.0064645968
0.59599495 -0.12366655 -0.0064958697
0.59618998 -0.12177625 -0.0084455265
0.59701514 -0.12016116 -0.0084768673
0.59784037 -0.11854608 -0.0085082082
0.59773099 -0.11649717 -0.011417488
0.5985589 -0.11487684 -0.01144893
0.59938675 -0.1132565 -0.011480372
0.60021466 -0.11163616 -0.011511816
0.60104257 -0.11001582 -0.011543258
0.60187042 -0.10839548 -0.0115747
0.60208601 -0.10646494 -0.013525139
0.60352618 -0.1051548 -0.011637586
0.60404974 -0.10337587 -0.012628594
0.60487849 -0.10175378 -0.012660071
0.60540468 -0.099969596 -0.013651181
0.60653603 -0.098509602 -0.012723024
0.60706407 -0.096721917 -0.013714202
0.60849351 -0.095432781 -0.011826242
0.6087234 -0.093474239 -0.013777223
0.61014926 -0.092192098 -0.011889127
0.61097717 -0.090571761 -0.011920569
0.61180508 -0.088951424 -0.011952013
0.61233753 -0.087154992 -0.01294336
0.61346084 -0.085710749 -0.012014898
0.61487597 -0.084449612 -0.010126394
0.61599487 -0.083014131 -0.0091977054
0.61711192 -0.081582136 -0.0082690055
0.61822718 -0.080153644 -0.0073402375
0.61905056 -0.078542054 -0.0073715104
0.62016314 -0.077118814 -0.0064426404
0.62127393 -0.075699069 -0.0055137025
0.62209558 -0.07409098 -0.0055449074
0.62291718 -0.072482891 -0.0055761123
0.62402445 -0.071070164 -0.0046469821
0.62541455 -0.069858015 -0.0027575279
0.62680113 -0.068652876 -0.00086788129
0.62846702 -0.067655317 0.0019822249
0.62984556 -0.066465929 0.0038721771
0.63122046 -0.065283529 0.0057622087
0.63259184 -0.064108141 0.0076524322
0.63479763 -0.063562535 0.012424341
0.63643759 -0.06261573 0.015275432
0.63834971 -0.06189052 0.019087367
0.64136136 -0.062030703 0.026742104
0.6440829 -0.061984282 0.033436675
0.6459673 -0.06131332 0.037249662
0.64674872 -0.059783969 0.037219986
0.64479935 -0.056056168 0.027582657
0.59686178 -0.15440083 0.030172439
0.59536374 -0.15208246 0.023429798
0.59355235 -0.14962736 0.015727649
0.59338021 -0.14771409 0.012820068
0.59321344 -0.14579035 0.00991234
0.59305203 -0.14385611 0.007004349
0.59321833 -0.14203058 0.005055327
0.59306675 -0.14007708 0.0021469649
0.59259999 -0.13799037 -0.001720782
0.5924601 -0.13601413 -0.0046295873
0.59328169 -0.13440605 -0.0046607926
0.59410334 -0.13279796 -0.0046919975
0.59429103 -0.13093042 -0.0066418345
0.59511447 -0.12931883 -0.0066731074
0.59593791 -0.12770724 -0.0067043803
0.59676129 -0.12609567 -0.0067356532
0.59758472 -0.12448407 -0.006766926
0.59778321 -0.12259555 -0.00871717
0.59860837 -0.12098046 -0.0087485109
0.5994336 -0.11936537 -0.0087798517
0.599949 -0.11760657 -0.0097708385
0.60015732 -0.1156988 -0.011721458
0.60098517 -0.11407846 -0.011752901
0.60181308 -0.11245812 -0.011784344
0.60264093 -0.11083779 -0.011815786
0.60407948 -0.10952237 -0.0099277114
0.60429674 -0.10759711 -0.011878672
0.60512459 -0.10597678 -0.011910114
0.6059525 -0.10435644 -0.011941557
0.60678035 -0.1027361 -0.011972999
0.60760826 -0.10111576 -0.012004443
0.60843617 -0.099495426 -0.012035885
0.60926402 -0.097875081 -0.012067327
0.61009192 -0.096254744 -0.01209877
0.61091983 -0.094634406 -0.012130213
0.61174768 -0.093014069 -0.012161655
0.61257559 -0.091393732 -0.012193098
0.61340344 -0.089773394 -0.012224541
0.61423135 -0.088153057 -0.012255983
0.61505926 -0.086532719 -0.012287426
0.61676288 -0.085448518 -0.0094380081
0.61758804 -0.083833426 -0.0094693489
0.61870342 -0.082400553 -0.0085403565
0.6198169 -0.080971174 -0.0076112933
0.62064034 -0.079359584 -0.0076425662
0.62175119 -0.07793545 -0.0067134015
0.62286025 -0.076514825 -0.0057841712
0.6236819 -0.074906737 -0.0058153761
0.62450355 -0.073298648 -0.005846581
0.62532514 -0.071690559 -0.0058777859
0.62671274 -0.070474893 -0.0039877193
0.62809676 -0.069266222 -0.0020975757
0.62947714 -0.068064556 -0.00020723754
0.63141459 -0.067272805 0.0036046528
0.63250667 -0.065885425 0.0045345309
0.63359696 -0.064501546 0.0054644742
0.63524067 -0.063534588 0.0083161667
0.63632566 -0.0621612 0.0092463139
0.63851207 -0.061632153 0.014020102
0.6412394 -0.06154453 0.02071611
0.64559841 -0.062763639 0.033178274
0.64747596 -0.062089127 0.036992438
0.64852959 -0.060776982 0.037923776
0.64958143 -0.059468351 0.03885524
0.59527475 -0.15232456 0.018371623
0.59510237 -0.15042447 0.015463363
0.59558201 -0.14874004 0.014473565
0.59509623 -0.14670762 0.010605626
0.59493911 -0.14477779 0.0076967888
0.59478736 -0.14283746 0.0047878027
0.59464097 -0.14088662 0.0018785583
0.59449995 -0.13892528 -0.0010308919
0.59436429 -0.13695346 -0.0039404868
0.594868 -0.13522179 -0.004931259
0.59568965 -0.13361371 -0.0049624639
0.59651124 -0.13200562 -0.0049936688
0.59670424 -0.13013637 -0.0069441632
0.59752768 -0.12852478 -0.0069754361
0.59835106 -0.12691319 -0.007006709
0.5991745 -0.1253016 -0.0070379819
0.59999788 -0.12369001 -0.0070692548
0.60020161 -0.12179977 -0.0090201572
0.60102683 -0.12018468 -0.009051498
0.601852 -0.11856959 -0.0090828389
0.60267723 -0.11695451 -0.0091141788
0.60350245 -0.11533941 -0.0091455197
0.60432762 -0.11372433 -0.0091768606
0.60515285 -0.11210924 -0.0092082014
0.60597801 -0.11049415 -0.0092395423
0.6058951 -0.10841908 -0.012151198
0.60672301 -0.10679874 -0.01218264
0.60755086 -0.1051784 -0.012214083
0.60837877 -0.10355806 -0.012245526
0.60890752 -0.1017774 -0.013237191
0.61003453 -0.10031738 -0.01230841
0.61086243 -0.098697044 -0.012339854
0.61169028 -0.097076707 -0.012371296
0.61251819 -0.095456369 -0.012402738
0.6133461 -0.093836032 -0.012434182
0.61417395 -0.092215694 -0.012465624
0.61500186 -0.090595357 -0.012497067
0.61582977 -0.08897502 -0.012528509
0.61665761 -0.087354682 -0.012559952
0.61835611 -0.086267821 -0.0097096544
0.61918128 -0.084652737 -0.0097409952
0.62029487 -0.083218962 -0.0088117048
0.62140667 -0.081788704 -0.0078823492
0.62223011 -0.080177113 -0.0079136221
0.62333924 -0.078752093 -0.0069841626
0.62444657 -0.077330574 -0.0060546375
0.62526822 -0.075722486 -0.0060858424
0.62608981 -0.074114397 -0.0061170473
0.62691146 -0.072506309 -0.0061482522
0.62801433 -0.071093544 -0.0052184979
0.62939578 -0.06988135 -0.0033277988
0.63077366 -0.068676166 -0.001436907
0.6324265 -0.067678533 0.0014150658
0.63379633 -0.066489093 0.0033062631
0.63488579 -0.06510257 0.00423647
0.63597345 -0.063719548 0.0051667425
0.63733435 -0.062547609 0.0070582791
0.63896573 -0.061591972 0.0099110696
0.64031857 -0.060435779 0.011802912
0.64738631 -0.063755825 0.033881173
0.64925599 -0.063079499 0.037696492
0.65030706 -0.061768241 0.038628213
0.59617293 -0.1529016 0.016189098
0.59665245 -0.15122157 0.015199076
0.59713376 -0.14953804 0.014208985
0.59697556 -0.14762311 0.011299501
0.59650302 -0.14558199 0.0074301469
0.59635645 -0.14364433 0.0045202784
0.59589726 -0.14157698 0.00065041461
0.59576231 -0.13961655 -0.0022599497
0.59594887 -0.13776833 -0.0042106607
0.59645432 -0.13603754 -0.0052017253
0.59727597 -0.13442945 -0.0052329302
0.59809756 -0.13282137 -0.0052641351
0.59829402 -0.13095389 -0.0072152172
0.5991174 -0.1293423 -0.0072464901
0.59994084 -0.12773071 -0.007277763
0.60076427 -0.12611912 -0.0073090359
0.60158765 -0.12450753 -0.0073403087
0.60179484 -0.12261907 -0.0092918007
0.60262007 -0.12100398 -0.0093231415
0.60344523 -0.11938889 -0.0093544824
0.60427046 -0.1177738 -0.0093858223
0.60509562 -0.11615872 -0.0094171632
0.60592085 -0.11454362 -0.0094485041
0.60674608 -0.11292854 -0.0094798449
0.60757124 -0.11131345 -0.0095111858
0.60839647 -0.10969836 -0.0095425267
0.60892159 -0.10792907 -0.010534338
0.60914928 -0.10600036 -0.012486611
0.60997719 -0.10438003 -0.012518054
0.61080503 -0.10275969 -0.012549496
0.61163294 -0.10113935 -0.012580939
0.61246085 -0.099519014 -0.012612382
0.6132887 -0.097898677 -0.012643824
0.61411661 -0.09627834 -0.012675267
0.61494452 -0.094657995 -0.012706709
0.61577237 -0.093037657 -0.012738152
0.61660028 -0.09141732 -0.012769595
0.61742812 -0.089796983 -0.012801037
0.61825603 -0.088176645 -0.01283248
0.62052619 -0.08744099 -0.0080595845
0.62134963 -0.0858294 -0.0080908574
0.62217307 -0.084217809 -0.0081221303
0.62299645 -0.082606226 -0.0081534032
0.62381989 -0.080994628 -0.0081846761
0.62492728 -0.079568729 -0.0072549237
0.62603289 -0.078146324 -0.0063251038
0.62685454 -0.076538235 -0.0063563087
0.62767613 -0.074930146 -0.0063875136
0.62849778 -0.073322058 -0.0064187185
0.62931943 -0.071713969 -0.0064499234
0.63069832 -0.070498258 -0.004558614
0.63235134 -0.069487482 -0.0017059033
0.63399899 -0.068487182 0.001146954
0.63536537 -0.067295969 0.0030387389
0.63672817 -0.066111736 0.0049306052
0.63781321 -0.064729579 0.0058612064
0.63916975 -0.063557617 0.0077533671
0.64025033 -0.0621842 0.0086841378
0.64132911 -0.060814295 0.0096149771
0.6491707 -0.064746223 0.0345846
0.65103263 -0.064068124 0.038401186
0.65181226 -0.062542275 0.038371578
0.59707808 -0.15348221 0.014005457
0.59788185 -0.15190913 0.013974931
0.59868556 -0.15033603 0.013944405
0.59853256 -0.14842378 0.011034037
0.59806687 -0.14638621 0.0071635051
0.59792548 -0.1444512 0.0042527565
0.59778947 -0.14250569 0.001341745
0.59765875 -0.14054969 -0.0015694699
0.59784794 -0.13870499 -0.0035207344
0.59804064 -0.13685329 -0.0054721911
0.59886229 -0.1352452 -0.0055033965
0.59968388 -0.13363712 -0.0055346014
0.59988379 -0.13177142 -0.0074862731
0.60070717 -0.13015983 -0.0075175459
0.60153061 -0.12854823 -0.0075488188
0.60235405 -0.12693664 -0.0075800917
0.60317743 -0.12532505 -0.0076113646
0.60338807 -0.12343837 -0.0095634442
0.60421324 -0.12182328 -0.009594785
0.60503846 -0.12020819 -0.0096261259
0.60586363 -0.1185931 -0.0096574668
0.60668886 -0.11697801 -0.0096888067
0.60751408 -0.11536293 -0.0097201476
0.60773718 -0.11345173 -0.011672759
0.60886431 -0.11198294 -0.010743527
0.60909194 -0.110063 -0.012696251
0.61051649 -0.10874926 -0.010806276
0.61074769 -0.10682233 -0.012759137
0.61157554 -0.10520199 -0.012790579
0.61240345 -0.10358165 -0.012822022
0.61323136 -0.10196131 -0.012853465
0.61405921 -0.10034098 -0.012884907
0.61488712 -0.09872064 -0.01291635
0.61600709 -0.097265847 -0.011986846
0.61712527 -0.095814556 -0.011057274
0.61766106 -0.094028667 -0.012049664
0.61848807 -0.09241008 -0.012081073
0.61960357 -0.090964042 -0.011151399
0.62071735 -0.089521512 -0.010221601
0.62211597 -0.088258512 -0.0083306404
0.62293941 -0.086646929 -0.0083619133
0.62376279 -0.085035339 -0.0083931861
0.62458622 -0.083423749 -0.008424459
0.62569278 -0.081995204 -0.0074944459
0.62679756 -0.080570161 -0.0065643648
0.62761921 -0.078962073 -0.0065955697
0.62844086 -0.077353984 -0.006626775
0.62926245 -0.075745896 -0.0066579799
0.6300841 -0.074137807 -0.0066891848
0.63090575 -0.072529718 -0.0067203897
0.63228118 -0.071312234 -0.0048284903
0.63337702 -0.069904685 -0.0038980697
0.63557154 -0.069295824 0.0008788422
0.63693446 -0.068102837 0.0027712169
0.63856709 -0.067119136 0.005625328
0.64019442 -0.066145934 0.0084797041
0.64127326 -0.064771637 0.0094107678
0.64262098 -0.063608393 0.011303722
0.64369535 -0.062242839 0.012234957
0.65095162 -0.065734856 0.035288617
0.65253782 -0.06484215 0.038144555
0.65385157 -0.063745387 0.040038738
0.59862989 -0.15428022 0.013740875
0.5994336 -0.15270713 0.013710349
0.60023737 -0.15113403 0.013679823
0.60008955 -0.14922443 0.010768575
0.60026336 -0.14741826 0.0088174352
0.59949452 -0.14525808 0.0039852322
0.59936368 -0.14331523 0.0010733383
0.59923816 -0.14136189 -0.0018387613
0.59974349 -0.13963988 -0.0028302206
0.59993881 -0.13779171 -0.0047821766
0.60044861 -0.13606095 -0.0057738647
0.6012702 -0.13445286 -0.0058050696
0.60147357 -0.13258894 -0.0077573294
0.60229695 -0.13097735 -0.0077886023
0.60312039 -0.12936577 -0.0078198751
0.60394377 -0.12775418 -0.007851148
0.6047672 -0.12614259 -0.0078824209
0.60498124 -0.12425767 -0.0098350877
0.60580647 -0.12264258 -0.0098664286
0.6066317 -0.12102749 -0.0098977694
0.60745686 -0.1194124 -0.0099291103
0.60828209 -0.11779732 -0.0099604502
0.60910726 -0.11618222 -0.0099917911
0.60933387 -0.1142728 -0.011944992
0.61016083 -0.11265422 -0.011976401
0.61098784 -0.11103563 -0.01200781
0.61181486 -0.10941704 -0.012039219
0.61234611 -0.1076443 -0.013031665
0.61346883 -0.10617986 -0.012102036
0.61400187 -0.10440361 -0.01309455
0.6151228 -0.10294269 -0.012164854
0.61594981 -0.1013241 -0.012196262
0.61677676 -0.09970551 -0.012227671
0.61818451 -0.098416254 -0.01033654
0.61900973 -0.096801162 -0.010367881
0.6198349 -0.095186077 -0.010399221
0.62066013 -0.093570985 -0.010430562
0.62148535 -0.0919559 -0.010461903
0.62288237 -0.090687633 -0.0085704233
0.62370574 -0.089076042 -0.0086016962
0.62452918 -0.087464452 -0.0086329691
0.6256358 -0.086031519 -0.0077027292
0.62645835 -0.084421687 -0.0077339681
0.62728083 -0.082811847 -0.007765207
0.62838393 -0.081385918 -0.0068348334
0.62920552 -0.079777829 -0.0068660383
0.63002717 -0.078169741 -0.0068972432
0.63084877 -0.076561652 -0.0069284481
0.6319474 -0.075144485 -0.0059978459
0.63332027 -0.073923454 -0.0041054473
0.63413918 -0.07232061 -0.0041365507
0.63550675 -0.071110107 -0.0022438939
0.63714403 -0.07010448 0.00061072822
0.63795853 -0.068510391 0.00057979493
0.63958776 -0.067520529 0.0034347817
0.64148241 -0.066744328 0.0072519584
0.64283025 -0.065572299 0.0091453055
0.64417452 -0.064407282 0.011038847
0.64524716 -0.063040845 0.011970375
0.65404302 -0.065616183 0.03788792
0.65535331 -0.064517647 0.039782692
0.5971446 -0.15592134 0.0067840409
0.59986353 -0.15497218 0.012515881
0.60098541 -0.15350512 0.013445769
0.60178918 -0.15193203 0.013415243
0.60164648 -0.1500251 0.01050311
0.60182375 -0.14822069 0.0085513834
0.60106361 -0.14606495 0.0037177077
0.60156345 -0.14435783 0.0027261663
0.60112947 -0.14229237 -0.0011473402
0.60132462 -0.14045297 -0.0030998045
0.6015234 -0.13860658 -0.0050523481
0.60203493 -0.1368767 -0.006044331
0.60285652 -0.13526861 -0.0060755359
0.60306334 -0.13340648 -0.0080283852
0.60388672 -0.13179488 -0.0080596581
0.60471016 -0.13018329 -0.008090931
0.60553354 -0.1285717 -0.0081222039
0.60635698 -0.12696011 -0.0081534768
0.60657448 -0.12507698 -0.010106733
0.6073997 -0.12346189 -0.010138074
0.60822493 -0.1218468 -0.010169415
0.6090501 -0.12023171 -0.010200756
0.60987532 -0.11861662 -0.010232097
0.61070049 -0.11700153 -0.010263437
0.61122811 -0.11524016 -0.011256029
0.61235094 -0.11377136 -0.010326119
0.61317611 -0.11215626 -0.010357459
0.61400133 -0.11054118 -0.0103888
0.61453247 -0.1087728 -0.011381528
0.61565173 -0.107311 -0.010451482
0.61618471 -0.10553913 -0.011444277
0.61730212 -0.10408083 -0.010514163
0.61812735 -0.10246573 -0.010545504
0.61895257 -0.10085065 -0.010576845
0.61977774 -0.099235557 -0.010608186
0.62060297 -0.097620472 -0.010639527
0.62142813 -0.09600538 -0.010670868
0.62225336 -0.094390295 -0.010702208
0.62336361 -0.092945978 -0.009771877
0.62447214 -0.091505162 -0.0088414801
0.62529552 -0.089893572 -0.008872753
0.62611896 -0.088281982 -0.0089040259
0.62694234 -0.086670391 -0.0089352988
0.62804639 -0.085238323 -0.0080047296
0.6291486 -0.083809756 -0.0070740948
0.62997025 -0.082201667 -0.0071052997
0.63079184 -0.080593579 -0.0071365046
0.63161349 -0.07898549 -0.0071677095
0.63243508 -0.077377401 -0.0071989144
0.63353199 -0.07595934 -0.006268017
0.6349014 -0.074736543 -0.0043750312
0.63599378 -0.073327221 -0.0034440232
0.63708442 -0.071921416 -0.0025128881
0.63871652 -0.070913129 0.0003426164
0.63953102 -0.06931904 0.00031168314
0.64088523 -0.068126 0.0022053029
0.64223588 -0.06693995 0.0040990021
0.64411914 -0.066168934 0.0079175252
0.64519364 -0.064794622 0.0088492129
0.64706522 -0.064046361 0.012668178
0.65554821 -0.066390209 0.037631284
0.65710741 -0.063338511 0.037572067
0.60015136 -0.15535049 0.0084081134
0.60285276 -0.15441002 0.014141931
0.60334092 -0.15273003 0.013150663
0.60320348 -0.15082575 0.010237647
0.6033842 -0.14902313 0.0082853315
0.60388047 -0.14732739 0.0072937552
0.60313427 -0.14516559 0.0024583493
0.60270721 -0.14310369 -0.0014163366
0.60290581 -0.14126606 -0.0033693884
